-2.105898439999999994e+02,-2.067187519999999950e+02,-3.155000000000000000e+02
-2.101796879999999987e+02,-2.067187519999999950e+02,-3.167500000000000000e+02
-2.101796879999999987e+02,-2.071289079999999956e+02,-3.155000000000000000e+02
-2.105898439999999994e+02,-2.058984399999999937e+02,-3.155000000000000000e+02
-2.101796879999999987e+02,-2.058984399999999937e+02,-3.167500000000000000e+02
-2.105898439999999994e+02,-2.050781279999999924e+02,-3.155000000000000000e+02
-2.101796879999999987e+02,-2.050781279999999924e+02,-3.167500000000000000e+02
-2.105898439999999994e+02,-2.042578159999999912e+02,-3.155000000000000000e+02
-2.101796879999999987e+02,-2.042578159999999912e+02,-3.167500000000000000e+02
-2.101796879999999987e+02,-2.038476599999999905e+02,-3.155000000000000000e+02
-2.105898439999999994e+02,-1.993359440000000120e+02,-3.230000000000000000e+02
-2.101796879999999987e+02,-1.993359440000000120e+02,-3.242500000000000000e+02
-2.101796879999999987e+02,-1.997461000000000126e+02,-3.230000000000000000e+02
-2.101796879999999987e+02,-1.993359440000000120e+02,-3.217500000000000000e+02
-2.105898439999999994e+02,-1.985156320000000107e+02,-3.230000000000000000e+02
-2.101796879999999987e+02,-1.985156320000000107e+02,-3.242500000000000000e+02
-2.101796879999999987e+02,-1.985156320000000107e+02,-3.217500000000000000e+02
-2.105898439999999994e+02,-1.976953200000000095e+02,-3.230000000000000000e+02
-2.101796879999999987e+02,-1.976953200000000095e+02,-3.242500000000000000e+02
-2.101796879999999987e+02,-1.976953200000000095e+02,-3.217500000000000000e+02
-2.105898439999999994e+02,-1.968750080000000082e+02,-3.255000000000000000e+02
-2.101796879999999987e+02,-1.972851640000000089e+02,-3.255000000000000000e+02
-2.105898439999999994e+02,-1.968750080000000082e+02,-3.230000000000000000e+02
-2.101796879999999987e+02,-1.968750080000000082e+02,-3.217500000000000000e+02
-2.101796879999999987e+02,-1.960546960000000070e+02,-3.242500000000000000e+02
-2.101796879999999987e+02,-1.964648520000000076e+02,-3.230000000000000000e+02
-2.105898439999999994e+02,-1.960546960000000070e+02,-3.255000000000000000e+02
-2.101796879999999987e+02,-1.952343840000000057e+02,-3.242500000000000000e+02
-2.105898439999999994e+02,-1.952343840000000057e+02,-3.255000000000000000e+02
-2.101796879999999987e+02,-1.944140720000000044e+02,-3.242500000000000000e+02
-2.105898439999999994e+02,-1.944140720000000044e+02,-3.255000000000000000e+02
-2.101796879999999987e+02,-1.935937600000000032e+02,-3.242500000000000000e+02
-2.105898439999999994e+02,-1.935937600000000032e+02,-3.255000000000000000e+02
-2.101796879999999987e+02,-1.931836040000000025e+02,-3.255000000000000000e+02
-2.097695319999999981e+02,-2.083593759999999975e+02,-3.155000000000000000e+02
-2.093593759999999975e+02,-2.083593759999999975e+02,-3.167500000000000000e+02
-2.093593759999999975e+02,-2.087695319999999981e+02,-3.155000000000000000e+02
-2.097695319999999981e+02,-2.075390639999999962e+02,-3.180000000000000000e+02
-2.093593759999999975e+02,-2.075390639999999962e+02,-3.192500000000000000e+02
-2.093593759999999975e+02,-2.079492199999999968e+02,-3.180000000000000000e+02
-2.097695319999999981e+02,-2.075390639999999962e+02,-3.155000000000000000e+02
-2.097695319999999981e+02,-2.067187519999999950e+02,-3.180000000000000000e+02
-2.093593759999999975e+02,-2.067187519999999950e+02,-3.192500000000000000e+02
-2.097695319999999981e+02,-2.058984399999999937e+02,-3.180000000000000000e+02
-2.093593759999999975e+02,-2.058984399999999937e+02,-3.192500000000000000e+02
-2.097695319999999981e+02,-2.050781279999999924e+02,-3.180000000000000000e+02
-2.093593759999999975e+02,-2.050781279999999924e+02,-3.192500000000000000e+02
-2.097695319999999981e+02,-2.042578159999999912e+02,-3.180000000000000000e+02
-2.093593759999999975e+02,-2.042578159999999912e+02,-3.192500000000000000e+02
-2.097695319999999981e+02,-2.034375039999999899e+02,-3.180000000000000000e+02
-2.093593759999999975e+02,-2.034375039999999899e+02,-3.192500000000000000e+02
-2.093593759999999975e+02,-2.038476599999999905e+02,-3.155000000000000000e+02
-2.093593759999999975e+02,-2.034375039999999899e+02,-3.167500000000000000e+02
-2.093593759999999975e+02,-2.030273479999999893e+02,-3.180000000000000000e+02
-2.097695319999999981e+02,-2.001562559999999849e+02,-3.230000000000000000e+02
-2.093593759999999975e+02,-2.001562559999999849e+02,-3.242500000000000000e+02
-2.093593759999999975e+02,-2.005664120000000139e+02,-3.230000000000000000e+02
-2.093593759999999975e+02,-2.001562559999999849e+02,-3.217500000000000000e+02
-2.093593759999999975e+02,-1.993359440000000120e+02,-3.242500000000000000e+02
-2.093593759999999975e+02,-1.993359440000000120e+02,-3.217500000000000000e+02
-2.093593759999999975e+02,-1.985156320000000107e+02,-3.242500000000000000e+02
-2.093593759999999975e+02,-1.985156320000000107e+02,-3.217500000000000000e+02
-2.097695319999999981e+02,-1.976953200000000095e+02,-3.255000000000000000e+02
-2.093593759999999975e+02,-1.981054760000000101e+02,-3.255000000000000000e+02
-2.093593759999999975e+02,-1.976953200000000095e+02,-3.217500000000000000e+02
-2.093593759999999975e+02,-1.968750080000000082e+02,-3.217500000000000000e+02
-2.093593759999999975e+02,-1.964648520000000076e+02,-3.230000000000000000e+02
-2.093593759999999975e+02,-1.960546960000000070e+02,-3.242500000000000000e+02
-2.093593759999999975e+02,-1.952343840000000057e+02,-3.242500000000000000e+02
-2.093593759999999975e+02,-1.944140720000000044e+02,-3.242500000000000000e+02
-2.093593759999999975e+02,-1.935937600000000032e+02,-3.242500000000000000e+02
-2.093593759999999975e+02,-1.931836040000000025e+02,-3.255000000000000000e+02
-2.089492199999999968e+02,-2.083593759999999975e+02,-3.180000000000000000e+02
-2.085390639999999962e+02,-2.083593759999999975e+02,-3.192500000000000000e+02
-2.085390639999999962e+02,-2.087695319999999981e+02,-3.180000000000000000e+02
-2.085390639999999962e+02,-2.087695319999999981e+02,-3.155000000000000000e+02
-2.085390639999999962e+02,-2.075390639999999962e+02,-3.192500000000000000e+02
-2.085390639999999962e+02,-2.067187519999999950e+02,-3.192500000000000000e+02
-2.089492199999999968e+02,-2.058984399999999937e+02,-3.205000000000000000e+02
-2.085390639999999962e+02,-2.058984399999999937e+02,-3.217500000000000000e+02
-2.085390639999999962e+02,-2.063085959999999943e+02,-3.205000000000000000e+02
-2.089492199999999968e+02,-2.050781279999999924e+02,-3.205000000000000000e+02
-2.085390639999999962e+02,-2.050781279999999924e+02,-3.217500000000000000e+02
-2.089492199999999968e+02,-2.042578159999999912e+02,-3.205000000000000000e+02
-2.085390639999999962e+02,-2.042578159999999912e+02,-3.217500000000000000e+02
-2.089492199999999968e+02,-2.034375039999999899e+02,-3.205000000000000000e+02
-2.085390639999999962e+02,-2.034375039999999899e+02,-3.217500000000000000e+02
-2.089492199999999968e+02,-2.034375039999999899e+02,-3.155000000000000000e+02
-2.089492199999999968e+02,-2.026171919999999886e+02,-3.205000000000000000e+02
-2.085390639999999962e+02,-2.026171919999999886e+02,-3.217500000000000000e+02
-2.089492199999999968e+02,-2.026171919999999886e+02,-3.180000000000000000e+02
-2.085390639999999962e+02,-2.026171919999999886e+02,-3.167500000000000000e+02
-2.085390639999999962e+02,-2.030273479999999893e+02,-3.155000000000000000e+02
-2.089492199999999968e+02,-2.017968799999999874e+02,-3.205000000000000000e+02
-2.085390639999999962e+02,-2.017968799999999874e+02,-3.217500000000000000e+02
-2.085390639999999962e+02,-2.017968799999999874e+02,-3.192500000000000000e+02
-2.085390639999999962e+02,-2.022070359999999880e+02,-3.180000000000000000e+02
-2.089492199999999968e+02,-2.009765679999999861e+02,-3.230000000000000000e+02
-2.085390639999999962e+02,-2.009765679999999861e+02,-3.242500000000000000e+02
-2.085390639999999962e+02,-2.013867239999999867e+02,-3.230000000000000000e+02
-2.089492199999999968e+02,-2.009765679999999861e+02,-3.205000000000000000e+02
-2.085390639999999962e+02,-2.009765679999999861e+02,-3.192500000000000000e+02
-2.085390639999999962e+02,-2.001562559999999849e+02,-3.242500000000000000e+02
-2.085390639999999962e+02,-2.005664120000000139e+02,-3.205000000000000000e+02
-2.085390639999999962e+02,-2.001562559999999849e+02,-3.217500000000000000e+02
-2.085390639999999962e+02,-1.993359440000000120e+02,-3.242500000000000000e+02
-2.085390639999999962e+02,-1.993359440000000120e+02,-3.217500000000000000e+02
-2.085390639999999962e+02,-1.985156320000000107e+02,-3.242500000000000000e+02
-2.085390639999999962e+02,-1.985156320000000107e+02,-3.217500000000000000e+02
-2.085390639999999962e+02,-1.981054760000000101e+02,-3.255000000000000000e+02
-2.085390639999999962e+02,-1.976953200000000095e+02,-3.217500000000000000e+02
-2.089492199999999968e+02,-1.968750080000000082e+02,-3.230000000000000000e+02
-2.085390639999999962e+02,-1.972851640000000089e+02,-3.230000000000000000e+02
-2.085390639999999962e+02,-1.968750080000000082e+02,-3.242500000000000000e+02
-2.085390639999999962e+02,-1.960546960000000070e+02,-3.242500000000000000e+02
-2.085390639999999962e+02,-1.952343840000000057e+02,-3.242500000000000000e+02
-2.085390639999999962e+02,-1.944140720000000044e+02,-3.242500000000000000e+02
-2.089492199999999968e+02,-1.935937600000000032e+02,-3.255000000000000000e+02
-2.085390639999999962e+02,-1.940039160000000038e+02,-3.255000000000000000e+02
-2.081289079999999956e+02,-2.091796879999999987e+02,-3.180000000000000000e+02
-2.077187519999999950e+02,-2.091796879999999987e+02,-3.192500000000000000e+02
-2.077187519999999950e+02,-2.095898439999999994e+02,-3.180000000000000000e+02
-2.077187519999999950e+02,-2.095898439999999994e+02,-3.155000000000000000e+02
-2.081289079999999956e+02,-2.091796879999999987e+02,-3.155000000000000000e+02
-2.077187519999999950e+02,-2.083593759999999975e+02,-3.192500000000000000e+02
-2.077187519999999950e+02,-2.075390639999999962e+02,-3.192500000000000000e+02
-2.081289079999999956e+02,-2.067187519999999950e+02,-3.205000000000000000e+02
-2.077187519999999950e+02,-2.067187519999999950e+02,-3.217500000000000000e+02
-2.077187519999999950e+02,-2.071289079999999956e+02,-3.205000000000000000e+02
-2.077187519999999950e+02,-2.058984399999999937e+02,-3.217500000000000000e+02
-2.077187519999999950e+02,-2.050781279999999924e+02,-3.217500000000000000e+02
-2.077187519999999950e+02,-2.042578159999999912e+02,-3.217500000000000000e+02
-2.077187519999999950e+02,-2.034375039999999899e+02,-3.217500000000000000e+02
-2.081289079999999956e+02,-2.026171919999999886e+02,-3.230000000000000000e+02
-2.077187519999999950e+02,-2.026171919999999886e+02,-3.242500000000000000e+02
-2.077187519999999950e+02,-2.030273479999999893e+02,-3.230000000000000000e+02
-2.077187519999999950e+02,-2.030273479999999893e+02,-3.155000000000000000e+02
-2.077187519999999950e+02,-2.026171919999999886e+02,-3.167500000000000000e+02
-2.081289079999999956e+02,-2.017968799999999874e+02,-3.230000000000000000e+02
-2.077187519999999950e+02,-2.017968799999999874e+02,-3.242500000000000000e+02
-2.077187519999999950e+02,-2.022070359999999880e+02,-3.180000000000000000e+02
-2.077187519999999950e+02,-2.017968799999999874e+02,-3.192500000000000000e+02
-2.077187519999999950e+02,-2.009765679999999861e+02,-3.242500000000000000e+02
-2.077187519999999950e+02,-2.009765679999999861e+02,-3.192500000000000000e+02
-2.077187519999999950e+02,-2.001562559999999849e+02,-3.242500000000000000e+02
-2.077187519999999950e+02,-2.005664120000000139e+02,-3.205000000000000000e+02
-2.077187519999999950e+02,-2.001562559999999849e+02,-3.217500000000000000e+02
-2.077187519999999950e+02,-1.993359440000000120e+02,-3.242500000000000000e+02
-2.077187519999999950e+02,-1.993359440000000120e+02,-3.217500000000000000e+02
-2.077187519999999950e+02,-1.985156320000000107e+02,-3.242500000000000000e+02
-2.077187519999999950e+02,-1.985156320000000107e+02,-3.217500000000000000e+02
-2.081289079999999956e+02,-1.976953200000000095e+02,-3.255000000000000000e+02
-2.077187519999999950e+02,-1.976953200000000095e+02,-3.242500000000000000e+02
-2.077187519999999950e+02,-1.976953200000000095e+02,-3.217500000000000000e+02
-2.077187519999999950e+02,-1.972851640000000089e+02,-3.230000000000000000e+02
-2.081289079999999956e+02,-1.968750080000000082e+02,-3.255000000000000000e+02
-2.081289079999999956e+02,-1.960546960000000070e+02,-3.255000000000000000e+02
-2.081289079999999956e+02,-1.952343840000000057e+02,-3.255000000000000000e+02
-2.081289079999999956e+02,-1.944140720000000044e+02,-3.255000000000000000e+02
-2.068984399999999937e+02,-2.091796879999999987e+02,-3.192500000000000000e+02
-2.068984399999999937e+02,-2.095898439999999994e+02,-3.180000000000000000e+02
-2.068984399999999937e+02,-2.095898439999999994e+02,-3.155000000000000000e+02
-2.068984399999999937e+02,-2.083593759999999975e+02,-3.192500000000000000e+02
-2.073085959999999943e+02,-2.075390639999999962e+02,-3.205000000000000000e+02
-2.068984399999999937e+02,-2.075390639999999962e+02,-3.217500000000000000e+02
-2.068984399999999937e+02,-2.079492199999999968e+02,-3.205000000000000000e+02
-2.068984399999999937e+02,-2.067187519999999950e+02,-3.217500000000000000e+02
-2.068984399999999937e+02,-2.058984399999999937e+02,-3.217500000000000000e+02
-2.068984399999999937e+02,-2.050781279999999924e+02,-3.217500000000000000e+02
-2.068984399999999937e+02,-2.042578159999999912e+02,-3.217500000000000000e+02
-2.068984399999999937e+02,-2.034375039999999899e+02,-3.217500000000000000e+02
-2.073085959999999943e+02,-2.026171919999999886e+02,-3.230000000000000000e+02
-2.068984399999999937e+02,-2.026171919999999886e+02,-3.217500000000000000e+02
-2.068984399999999937e+02,-2.030273479999999893e+02,-3.155000000000000000e+02
-2.068984399999999937e+02,-2.026171919999999886e+02,-3.167500000000000000e+02
-2.073085959999999943e+02,-2.017968799999999874e+02,-3.230000000000000000e+02
-2.068984399999999937e+02,-2.017968799999999874e+02,-3.217500000000000000e+02
-2.068984399999999937e+02,-2.022070359999999880e+02,-3.180000000000000000e+02
-2.068984399999999937e+02,-2.017968799999999874e+02,-3.192500000000000000e+02
-2.068984399999999937e+02,-2.009765679999999861e+02,-3.242500000000000000e+02
-2.068984399999999937e+02,-2.013867239999999867e+02,-3.230000000000000000e+02
-2.068984399999999937e+02,-2.009765679999999861e+02,-3.192500000000000000e+02
-2.068984399999999937e+02,-2.001562559999999849e+02,-3.242500000000000000e+02
-2.068984399999999937e+02,-2.005664120000000139e+02,-3.205000000000000000e+02
-2.068984399999999937e+02,-2.001562559999999849e+02,-3.217500000000000000e+02
-2.068984399999999937e+02,-1.993359440000000120e+02,-3.242500000000000000e+02
-2.068984399999999937e+02,-1.993359440000000120e+02,-3.217500000000000000e+02
-2.068984399999999937e+02,-1.985156320000000107e+02,-3.242500000000000000e+02
-2.068984399999999937e+02,-1.985156320000000107e+02,-3.217500000000000000e+02
-2.068984399999999937e+02,-1.981054760000000101e+02,-3.230000000000000000e+02
-2.073085959999999943e+02,-1.976953200000000095e+02,-3.230000000000000000e+02
-2.060781279999999924e+02,-2.091796879999999987e+02,-3.192500000000000000e+02
-2.060781279999999924e+02,-2.095898439999999994e+02,-3.180000000000000000e+02
-2.060781279999999924e+02,-2.095898439999999994e+02,-3.155000000000000000e+02
-2.060781279999999924e+02,-2.083593759999999975e+02,-3.192500000000000000e+02
-2.060781279999999924e+02,-2.075390639999999962e+02,-3.217500000000000000e+02
-2.060781279999999924e+02,-2.079492199999999968e+02,-3.205000000000000000e+02
-2.060781279999999924e+02,-2.067187519999999950e+02,-3.217500000000000000e+02
-2.060781279999999924e+02,-2.058984399999999937e+02,-3.217500000000000000e+02
-2.060781279999999924e+02,-2.050781279999999924e+02,-3.217500000000000000e+02
-2.060781279999999924e+02,-2.042578159999999912e+02,-3.217500000000000000e+02
-2.060781279999999924e+02,-2.034375039999999899e+02,-3.217500000000000000e+02
-2.060781279999999924e+02,-2.026171919999999886e+02,-3.217500000000000000e+02
-2.060781279999999924e+02,-2.030273479999999893e+02,-3.155000000000000000e+02
-2.060781279999999924e+02,-2.026171919999999886e+02,-3.167500000000000000e+02
-2.060781279999999924e+02,-2.017968799999999874e+02,-3.217500000000000000e+02
-2.060781279999999924e+02,-2.022070359999999880e+02,-3.180000000000000000e+02
-2.060781279999999924e+02,-2.017968799999999874e+02,-3.192500000000000000e+02
-2.064882839999999931e+02,-2.009765679999999861e+02,-3.230000000000000000e+02
-2.060781279999999924e+02,-2.013867239999999867e+02,-3.205000000000000000e+02
-2.064882839999999931e+02,-2.009765679999999861e+02,-3.205000000000000000e+02
-2.064882839999999931e+02,-2.001562559999999849e+02,-3.230000000000000000e+02
-2.064882839999999931e+02,-1.993359440000000120e+02,-3.230000000000000000e+02
-2.064882839999999931e+02,-1.985156320000000107e+02,-3.230000000000000000e+02
-2.052578159999999912e+02,-2.091796879999999987e+02,-3.192500000000000000e+02
-2.052578159999999912e+02,-2.095898439999999994e+02,-3.180000000000000000e+02
-2.056679719999999918e+02,-2.091796879999999987e+02,-3.155000000000000000e+02
-2.052578159999999912e+02,-2.091796879999999987e+02,-3.167500000000000000e+02
-2.052578159999999912e+02,-2.083593759999999975e+02,-3.192500000000000000e+02
-2.052578159999999912e+02,-2.087695319999999981e+02,-3.155000000000000000e+02
-2.052578159999999912e+02,-2.075390639999999962e+02,-3.217500000000000000e+02
-2.052578159999999912e+02,-2.079492199999999968e+02,-3.205000000000000000e+02
-2.052578159999999912e+02,-2.067187519999999950e+02,-3.217500000000000000e+02
-2.052578159999999912e+02,-2.058984399999999937e+02,-3.217500000000000000e+02
-2.052578159999999912e+02,-2.050781279999999924e+02,-3.217500000000000000e+02
-2.052578159999999912e+02,-2.042578159999999912e+02,-3.217500000000000000e+02
-2.052578159999999912e+02,-2.034375039999999899e+02,-3.217500000000000000e+02
-2.056679719999999918e+02,-2.034375039999999899e+02,-3.155000000000000000e+02
-2.052578159999999912e+02,-2.038476599999999905e+02,-3.155000000000000000e+02
-2.052578159999999912e+02,-2.034375039999999899e+02,-3.167500000000000000e+02
-2.052578159999999912e+02,-2.026171919999999886e+02,-3.217500000000000000e+02
-2.056679719999999918e+02,-2.026171919999999886e+02,-3.180000000000000000e+02
-2.052578159999999912e+02,-2.030273479999999893e+02,-3.180000000000000000e+02
-2.052578159999999912e+02,-2.026171919999999886e+02,-3.192500000000000000e+02
-2.052578159999999912e+02,-2.017968799999999874e+02,-3.217500000000000000e+02
-2.052578159999999912e+02,-2.017968799999999874e+02,-3.192500000000000000e+02
-2.052578159999999912e+02,-2.013867239999999867e+02,-3.205000000000000000e+02
-2.044375039999999899e+02,-2.091796879999999987e+02,-3.192500000000000000e+02
-2.044375039999999899e+02,-2.095898439999999994e+02,-3.180000000000000000e+02
-2.044375039999999899e+02,-2.091796879999999987e+02,-3.167500000000000000e+02
-2.044375039999999899e+02,-2.083593759999999975e+02,-3.192500000000000000e+02
-2.044375039999999899e+02,-2.087695319999999981e+02,-3.155000000000000000e+02
-2.048476599999999905e+02,-2.075390639999999962e+02,-3.205000000000000000e+02
-2.044375039999999899e+02,-2.075390639999999962e+02,-3.192500000000000000e+02
-2.048476599999999905e+02,-2.067187519999999950e+02,-3.205000000000000000e+02
-2.044375039999999899e+02,-2.067187519999999950e+02,-3.192500000000000000e+02
-2.048476599999999905e+02,-2.058984399999999937e+02,-3.205000000000000000e+02
-2.044375039999999899e+02,-2.058984399999999937e+02,-3.192500000000000000e+02
-2.048476599999999905e+02,-2.050781279999999924e+02,-3.205000000000000000e+02
-2.044375039999999899e+02,-2.050781279999999924e+02,-3.192500000000000000e+02
-2.048476599999999905e+02,-2.042578159999999912e+02,-3.205000000000000000e+02
-2.044375039999999899e+02,-2.042578159999999912e+02,-3.192500000000000000e+02
-2.048476599999999905e+02,-2.042578159999999912e+02,-3.155000000000000000e+02
-2.044375039999999899e+02,-2.046679719999999918e+02,-3.155000000000000000e+02
-2.044375039999999899e+02,-2.042578159999999912e+02,-3.167500000000000000e+02
-2.048476599999999905e+02,-2.034375039999999899e+02,-3.205000000000000000e+02
-2.044375039999999899e+02,-2.038476599999999905e+02,-3.180000000000000000e+02
-2.048476599999999905e+02,-2.034375039999999899e+02,-3.180000000000000000e+02
-2.048476599999999905e+02,-2.026171919999999886e+02,-3.205000000000000000e+02
-2.048476599999999905e+02,-2.017968799999999874e+02,-3.205000000000000000e+02
-2.040273479999999893e+02,-2.091796879999999987e+02,-3.180000000000000000e+02
-2.040273479999999893e+02,-2.083593759999999975e+02,-3.180000000000000000e+02
-2.040273479999999893e+02,-2.083593759999999975e+02,-3.155000000000000000e+02
-2.040273479999999893e+02,-2.075390639999999962e+02,-3.180000000000000000e+02
-2.040273479999999893e+02,-2.075390639999999962e+02,-3.155000000000000000e+02
-2.040273479999999893e+02,-2.067187519999999950e+02,-3.180000000000000000e+02
-2.040273479999999893e+02,-2.067187519999999950e+02,-3.155000000000000000e+02
-2.040273479999999893e+02,-2.058984399999999937e+02,-3.180000000000000000e+02
-2.040273479999999893e+02,-2.058984399999999937e+02,-3.155000000000000000e+02
-2.040273479999999893e+02,-2.050781279999999924e+02,-3.180000000000000000e+02
-2.040273479999999893e+02,-2.050781279999999924e+02,-3.155000000000000000e+02
-2.040273479999999893e+02,-2.042578159999999912e+02,-3.180000000000000000e+02
