-1.452070390000000089e+02,-1.407812720000000013e+02,-3.253900150000000053e+02
-1.448750080000000082e+02,-1.407812720000000013e+02,-3.247650150000000053e+02
-1.452070390000000089e+02,-1.407812720000000013e+02,-3.228900150000000053e+02
-1.448750080000000082e+02,-1.407812720000000013e+02,-3.235150150000000053e+02
-1.448750080000000082e+02,-1.407812720000000013e+02,-3.222650150000000053e+02
-1.448750080000000082e+02,-1.404492410000000007e+02,-3.316400150000000053e+02
-1.448750080000000082e+02,-1.404492410000000007e+02,-3.291400150000000053e+02
-1.448750080000000082e+02,-1.404492410000000007e+02,-3.278900150000000053e+02
-1.448750080000000082e+02,-1.404492410000000007e+02,-3.266400150000000053e+02
-1.448750080000000082e+02,-1.404492410000000007e+02,-3.253900150000000053e+02
-1.448750080000000082e+02,-1.404492410000000007e+02,-3.228900150000000053e+02
-1.445429770000000076e+02,-1.673437519999999950e+02,-3.291400150000000053e+02
-1.442109460000000070e+02,-1.673437519999999950e+02,-3.297650150000000053e+02
-1.442109460000000070e+02,-1.676757829999999956e+02,-3.291400150000000053e+02
-1.442109460000000070e+02,-1.673437519999999950e+02,-3.285150150000000053e+02
-1.445429770000000076e+02,-1.666796899999999937e+02,-3.291400150000000053e+02
-1.442109460000000070e+02,-1.666796899999999937e+02,-3.297650150000000053e+02
-1.442109460000000070e+02,-1.666796899999999937e+02,-3.285150150000000053e+02
-1.445429770000000076e+02,-1.660156279999999924e+02,-3.303900150000000053e+02
-1.442109460000000070e+02,-1.660156279999999924e+02,-3.310150150000000053e+02
-1.442109460000000070e+02,-1.663476589999999931e+02,-3.303900150000000053e+02
-1.442109460000000070e+02,-1.663476589999999931e+02,-3.278900150000000053e+02
-1.445429770000000076e+02,-1.660156279999999924e+02,-3.278900150000000053e+02
-1.442109460000000070e+02,-1.660156279999999924e+02,-3.272650150000000053e+02
-1.442109460000000070e+02,-1.653515659999999912e+02,-3.335150150000000053e+02
-1.442109460000000070e+02,-1.656835969999999918e+02,-3.328900150000000053e+02
-1.442109460000000070e+02,-1.653515659999999912e+02,-3.322650150000000053e+02
-1.442109460000000070e+02,-1.653515659999999912e+02,-3.310150150000000053e+02
-1.442109460000000070e+02,-1.656835969999999918e+02,-3.266400150000000053e+02
-1.445429770000000076e+02,-1.653515659999999912e+02,-3.266400150000000053e+02
-1.442109460000000070e+02,-1.653515659999999912e+02,-3.260150150000000053e+02
-1.442109460000000070e+02,-1.646875039999999899e+02,-3.335150150000000053e+02
-1.442109460000000070e+02,-1.650195349999999905e+02,-3.316400150000000053e+02
-1.445429770000000076e+02,-1.646875039999999899e+02,-3.316400150000000053e+02
-1.442109460000000070e+02,-1.650195349999999905e+02,-3.253900150000000053e+02
-1.442109460000000070e+02,-1.650195349999999905e+02,-3.241400150000000053e+02
-1.442109460000000070e+02,-1.646875039999999899e+02,-3.235150150000000053e+02
-1.442109460000000070e+02,-1.640234419999999886e+02,-3.335150150000000053e+02
-1.442109460000000070e+02,-1.640234419999999886e+02,-3.235150150000000053e+02
-1.442109460000000070e+02,-1.633593799999999874e+02,-3.335150150000000053e+02
-1.442109460000000070e+02,-1.636914109999999880e+02,-3.228900150000000053e+02
-1.445429770000000076e+02,-1.633593799999999874e+02,-3.228900150000000053e+02
-1.442109460000000070e+02,-1.633593799999999874e+02,-3.222650150000000053e+02
-1.442109460000000070e+02,-1.626953179999999861e+02,-3.335150150000000053e+02
-1.442109460000000070e+02,-1.630273489999999867e+02,-3.216400150000000053e+02
-1.445429770000000076e+02,-1.626953179999999861e+02,-3.216400150000000053e+02
-1.442109460000000070e+02,-1.630273489999999867e+02,-3.203900150000000053e+02
-1.445429770000000076e+02,-1.626953179999999861e+02,-3.203900150000000053e+02
-1.442109460000000070e+02,-1.626953179999999861e+02,-3.197650150000000053e+02
-1.445429770000000076e+02,-1.620312559999999849e+02,-3.341400150000000053e+02
-1.442109460000000070e+02,-1.620312559999999849e+02,-3.335150150000000053e+02
-1.442109460000000070e+02,-1.620312559999999849e+02,-3.197650150000000053e+02
-1.442109460000000070e+02,-1.613671940000000120e+02,-3.347650150000000053e+02
-1.442109460000000070e+02,-1.616992250000000126e+02,-3.341400150000000053e+02
-1.442109460000000070e+02,-1.613671940000000120e+02,-3.197650150000000053e+02
-1.442109460000000070e+02,-1.607031320000000107e+02,-3.347650150000000053e+02
-1.442109460000000070e+02,-1.607031320000000107e+02,-3.197650150000000053e+02
-1.442109460000000070e+02,-1.600390700000000095e+02,-3.347650150000000053e+02
-1.442109460000000070e+02,-1.603711010000000101e+02,-3.191400150000000053e+02
-1.445429770000000076e+02,-1.600390700000000095e+02,-3.191400150000000053e+02
-1.442109460000000070e+02,-1.603711010000000101e+02,-3.178900150000000053e+02
-1.445429770000000076e+02,-1.600390700000000095e+02,-3.178900150000000053e+02
-1.442109460000000070e+02,-1.600390700000000095e+02,-3.172650150000000053e+02
-1.442109460000000070e+02,-1.593750080000000082e+02,-3.347650150000000053e+02
-1.442109460000000070e+02,-1.593750080000000082e+02,-3.172650150000000053e+02
-1.442109460000000070e+02,-1.587109460000000070e+02,-3.347650150000000053e+02
-1.442109460000000070e+02,-1.587109460000000070e+02,-3.172650150000000053e+02
-1.442109460000000070e+02,-1.580468840000000057e+02,-3.347650150000000053e+02
-1.442109460000000070e+02,-1.583789150000000063e+02,-3.166400150000000053e+02
-1.445429770000000076e+02,-1.580468840000000057e+02,-3.166400150000000053e+02
-1.442109460000000070e+02,-1.580468840000000057e+02,-3.160150150000000053e+02
-1.442109460000000070e+02,-1.573828220000000044e+02,-3.347650150000000053e+02
-1.442109460000000070e+02,-1.573828220000000044e+02,-3.160150150000000053e+02
-1.445429770000000076e+02,-1.567187600000000032e+02,-3.353900150000000053e+02
-1.442109460000000070e+02,-1.567187600000000032e+02,-3.347650150000000053e+02
-1.442109460000000070e+02,-1.567187600000000032e+02,-3.160150150000000053e+02
-1.442109460000000070e+02,-1.560546980000000019e+02,-3.360150150000000053e+02
-1.442109460000000070e+02,-1.563867290000000025e+02,-3.353900150000000053e+02
-1.442109460000000070e+02,-1.560546980000000019e+02,-3.160150150000000053e+02
-1.442109460000000070e+02,-1.553906360000000006e+02,-3.360150150000000053e+02
-1.442109460000000070e+02,-1.553906360000000006e+02,-3.160150150000000053e+02
-1.442109460000000070e+02,-1.547265739999999994e+02,-3.360150150000000053e+02
-1.442109460000000070e+02,-1.547265739999999994e+02,-3.160150150000000053e+02
-1.442109460000000070e+02,-1.540625119999999981e+02,-3.360150150000000053e+02
-1.442109460000000070e+02,-1.540625119999999981e+02,-3.160150150000000053e+02
-1.442109460000000070e+02,-1.533984499999999969e+02,-3.360150150000000053e+02
-1.442109460000000070e+02,-1.533984499999999969e+02,-3.160150150000000053e+02
-1.442109460000000070e+02,-1.527343879999999956e+02,-3.360150150000000053e+02
-1.442109460000000070e+02,-1.527343879999999956e+02,-3.160150150000000053e+02
-1.442109460000000070e+02,-1.520703259999999943e+02,-3.360150150000000053e+02
-1.442109460000000070e+02,-1.520703259999999943e+02,-3.160150150000000053e+02
-1.442109460000000070e+02,-1.514062639999999931e+02,-3.360150150000000053e+02
-1.442109460000000070e+02,-1.514062639999999931e+02,-3.160150150000000053e+02
-1.442109460000000070e+02,-1.507422019999999918e+02,-3.360150150000000053e+02
-1.442109460000000070e+02,-1.507422019999999918e+02,-3.160150150000000053e+02
-1.442109460000000070e+02,-1.500781399999999906e+02,-3.360150150000000053e+02
-1.442109460000000070e+02,-1.500781399999999906e+02,-3.160150150000000053e+02
-1.442109460000000070e+02,-1.494140779999999893e+02,-3.360150150000000053e+02
-1.445429770000000076e+02,-1.494140779999999893e+02,-3.166400150000000053e+02
-1.442109460000000070e+02,-1.494140779999999893e+02,-3.160150150000000053e+02
-1.442109460000000070e+02,-1.487500159999999880e+02,-3.360150150000000053e+02
-1.445429770000000076e+02,-1.487500159999999880e+02,-3.166400150000000053e+02
-1.442109460000000070e+02,-1.487500159999999880e+02,-3.160150150000000053e+02
-1.442109460000000070e+02,-1.480859539999999868e+02,-3.360150150000000053e+02
-1.442109460000000070e+02,-1.484179849999999874e+02,-3.166400150000000053e+02
-1.442109460000000070e+02,-1.480859539999999868e+02,-3.172650150000000053e+02
-1.442109460000000070e+02,-1.474218920000000139e+02,-3.360150150000000053e+02
-1.442109460000000070e+02,-1.474218920000000139e+02,-3.172650150000000053e+02
-1.442109460000000070e+02,-1.467578300000000127e+02,-3.360150150000000053e+02
-1.442109460000000070e+02,-1.467578300000000127e+02,-3.172650150000000053e+02
-1.442109460000000070e+02,-1.460937680000000114e+02,-3.360150150000000053e+02
-1.442109460000000070e+02,-1.460937680000000114e+02,-3.172650150000000053e+02
-1.442109460000000070e+02,-1.454297060000000101e+02,-3.360150150000000053e+02
-1.445429770000000076e+02,-1.454297060000000101e+02,-3.178900150000000053e+02
-1.442109460000000070e+02,-1.454297060000000101e+02,-3.172650150000000053e+02
-1.442109460000000070e+02,-1.447656440000000089e+02,-3.360150150000000053e+02
-1.442109460000000070e+02,-1.450976750000000095e+02,-3.178900150000000053e+02
-1.442109460000000070e+02,-1.447656440000000089e+02,-3.185150150000000053e+02
-1.442109460000000070e+02,-1.441015820000000076e+02,-3.360150150000000053e+02
-1.445429770000000076e+02,-1.441015820000000076e+02,-3.191400150000000053e+02
-1.442109460000000070e+02,-1.441015820000000076e+02,-3.185150150000000053e+02
-1.442109460000000070e+02,-1.434375200000000063e+02,-3.360150150000000053e+02
-1.442109460000000070e+02,-1.437695510000000070e+02,-3.191400150000000053e+02
-1.442109460000000070e+02,-1.434375200000000063e+02,-3.197650150000000053e+02
-1.442109460000000070e+02,-1.427734580000000051e+02,-3.360150150000000053e+02
-1.442109460000000070e+02,-1.427734580000000051e+02,-3.197650150000000053e+02
-1.442109460000000070e+02,-1.421093960000000038e+02,-3.360150150000000053e+02
-1.442109460000000070e+02,-1.424414270000000045e+02,-3.341400150000000053e+02
-1.442109460000000070e+02,-1.421093960000000038e+02,-3.347650150000000053e+02
-1.442109460000000070e+02,-1.421093960000000038e+02,-3.335150150000000053e+02
-1.445429770000000076e+02,-1.421093960000000038e+02,-3.203900150000000053e+02
-1.442109460000000070e+02,-1.421093960000000038e+02,-3.197650150000000053e+02
-1.442109460000000070e+02,-1.417773650000000032e+02,-3.353900150000000053e+02
-1.442109460000000070e+02,-1.414453340000000026e+02,-3.335150150000000053e+02
-1.445429770000000076e+02,-1.414453340000000026e+02,-3.241400150000000053e+02
-1.442109460000000070e+02,-1.417773650000000032e+02,-3.216400150000000053e+02
-1.442109460000000070e+02,-1.414453340000000026e+02,-3.222650150000000053e+02
-1.442109460000000070e+02,-1.417773650000000032e+02,-3.203900150000000053e+02
-1.445429770000000076e+02,-1.407812720000000013e+02,-3.328900150000000053e+02
-1.442109460000000070e+02,-1.407812720000000013e+02,-3.335150150000000053e+02
-1.445429770000000076e+02,-1.407812720000000013e+02,-3.303900150000000053e+02
-1.442109460000000070e+02,-1.411133030000000019e+02,-3.241400150000000053e+02
-1.442109460000000070e+02,-1.407812720000000013e+02,-3.247650150000000053e+02
-1.442109460000000070e+02,-1.407812720000000013e+02,-3.235150150000000053e+02
-1.442109460000000070e+02,-1.407812720000000013e+02,-3.222650150000000053e+02
-1.442109460000000070e+02,-1.404492410000000007e+02,-3.328900150000000053e+02
-1.445429770000000076e+02,-1.401172100000000000e+02,-3.316400150000000053e+02
-1.442109460000000070e+02,-1.401172100000000000e+02,-3.322650150000000053e+02
-1.442109460000000070e+02,-1.401172100000000000e+02,-3.310150150000000053e+02
-1.442109460000000070e+02,-1.404492410000000007e+02,-3.303900150000000053e+02
-1.442109460000000070e+02,-1.404492410000000007e+02,-3.291400150000000053e+02
-1.442109460000000070e+02,-1.404492410000000007e+02,-3.278900150000000053e+02
-1.445429770000000076e+02,-1.401172100000000000e+02,-3.266400150000000053e+02
-1.442109460000000070e+02,-1.401172100000000000e+02,-3.272650150000000053e+02
-1.442109460000000070e+02,-1.401172100000000000e+02,-3.260150150000000053e+02
-1.442109460000000070e+02,-1.404492410000000007e+02,-3.253900150000000053e+02
-1.442109460000000070e+02,-1.404492410000000007e+02,-3.228900150000000053e+02
-1.442109460000000070e+02,-1.397851789999999994e+02,-3.316400150000000053e+02
-1.442109460000000070e+02,-1.397851789999999994e+02,-3.266400150000000053e+02
-1.438789150000000063e+02,-1.680078139999999962e+02,-3.291400150000000053e+02
-1.435468840000000057e+02,-1.680078139999999962e+02,-3.297650150000000053e+02
-1.435468840000000057e+02,-1.683398449999999968e+02,-3.291400150000000053e+02
-1.435468840000000057e+02,-1.680078139999999962e+02,-3.285150150000000053e+02
-1.435468840000000057e+02,-1.673437519999999950e+02,-3.297650150000000053e+02
-1.435468840000000057e+02,-1.673437519999999950e+02,-3.285150150000000053e+02
-1.435468840000000057e+02,-1.666796899999999937e+02,-3.297650150000000053e+02
-1.435468840000000057e+02,-1.670117209999999943e+02,-3.278900150000000053e+02
-1.438789150000000063e+02,-1.666796899999999937e+02,-3.278900150000000053e+02
-1.435468840000000057e+02,-1.666796899999999937e+02,-3.272650150000000053e+02
-1.435468840000000057e+02,-1.660156279999999924e+02,-3.310150150000000053e+02
-1.435468840000000057e+02,-1.663476589999999931e+02,-3.303900150000000053e+02
-1.435468840000000057e+02,-1.663476589999999931e+02,-3.266400150000000053e+02
-1.438789150000000063e+02,-1.660156279999999924e+02,-3.266400150000000053e+02
-1.435468840000000057e+02,-1.660156279999999924e+02,-3.260150150000000053e+02
-1.438789150000000063e+02,-1.653515659999999912e+02,-3.328900150000000053e+02
-1.435468840000000057e+02,-1.656835969999999918e+02,-3.316400150000000053e+02
-1.435468840000000057e+02,-1.653515659999999912e+02,-3.322650150000000053e+02
-1.438789150000000063e+02,-1.653515659999999912e+02,-3.316400150000000053e+02
-1.435468840000000057e+02,-1.656835969999999918e+02,-3.253900150000000053e+02
-1.438789150000000063e+02,-1.653515659999999912e+02,-3.253900150000000053e+02
-1.435468840000000057e+02,-1.653515659999999912e+02,-3.247650150000000053e+02
-1.435468840000000057e+02,-1.646875039999999899e+02,-3.335150150000000053e+02
-1.435468840000000057e+02,-1.650195349999999905e+02,-3.328900150000000053e+02
-1.435468840000000057e+02,-1.650195349999999905e+02,-3.241400150000000053e+02
-1.435468840000000057e+02,-1.646875039999999899e+02,-3.235150150000000053e+02
-1.435468840000000057e+02,-1.640234419999999886e+02,-3.335150150000000053e+02
-1.435468840000000057e+02,-1.643554729999999893e+02,-3.228900150000000053e+02
-1.438789150000000063e+02,-1.640234419999999886e+02,-3.228900150000000053e+02
-1.435468840000000057e+02,-1.640234419999999886e+02,-3.222650150000000053e+02
-1.435468840000000057e+02,-1.633593799999999874e+02,-3.335150150000000053e+02
-1.435468840000000057e+02,-1.633593799999999874e+02,-3.222650150000000053e+02
-1.435468840000000057e+02,-1.626953179999999861e+02,-3.335150150000000053e+02
-1.435468840000000057e+02,-1.630273489999999867e+02,-3.216400150000000053e+02
-1.435468840000000057e+02,-1.630273489999999867e+02,-3.203900150000000053e+02
-1.435468840000000057e+02,-1.626953179999999861e+02,-3.197650150000000053e+02
-1.435468840000000057e+02,-1.620312559999999849e+02,-3.335150150000000053e+02
-1.435468840000000057e+02,-1.620312559999999849e+02,-3.197650150000000053e+02
-1.438789150000000063e+02,-1.613671940000000120e+02,-3.341400150000000053e+02
-1.435468840000000057e+02,-1.613671940000000120e+02,-3.335150150000000053e+02
-1.435468840000000057e+02,-1.613671940000000120e+02,-3.197650150000000053e+02
-1.435468840000000057e+02,-1.607031320000000107e+02,-3.347650150000000053e+02
-1.435468840000000057e+02,-1.610351630000000114e+02,-3.341400150000000053e+02
-1.435468840000000057e+02,-1.610351630000000114e+02,-3.191400150000000053e+02
-1.438789150000000063e+02,-1.607031320000000107e+02,-3.191400150000000053e+02
-1.435468840000000057e+02,-1.610351630000000114e+02,-3.178900150000000053e+02
-1.438789150000000063e+02,-1.607031320000000107e+02,-3.178900150000000053e+02
-1.435468840000000057e+02,-1.607031320000000107e+02,-3.172650150000000053e+02
-1.435468840000000057e+02,-1.600390700000000095e+02,-3.347650150000000053e+02
-1.435468840000000057e+02,-1.600390700000000095e+02,-3.172650150000000053e+02
-1.435468840000000057e+02,-1.593750080000000082e+02,-3.347650150000000053e+02
-1.435468840000000057e+02,-1.597070390000000089e+02,-3.166400150000000053e+02
-1.438789150000000063e+02,-1.593750080000000082e+02,-3.166400150000000053e+02
-1.435468840000000057e+02,-1.593750080000000082e+02,-3.160150150000000053e+02
-1.435468840000000057e+02,-1.587109460000000070e+02,-3.347650150000000053e+02
-1.438789150000000063e+02,-1.587109460000000070e+02,-3.166400150000000053e+02
-1.435468840000000057e+02,-1.587109460000000070e+02,-3.160150150000000053e+02
-1.435468840000000057e+02,-1.580468840000000057e+02,-3.347650150000000053e+02
-1.435468840000000057e+02,-1.580468840000000057e+02,-3.160150150000000053e+02
-1.435468840000000057e+02,-1.573828220000000044e+02,-3.347650150000000053e+02
-1.435468840000000057e+02,-1.577148530000000051e+02,-3.153900150000000053e+02
-1.438789150000000063e+02,-1.573828220000000044e+02,-3.153900150000000053e+02
-1.435468840000000057e+02,-1.573828220000000044e+02,-3.147650150000000053e+02
-1.435468840000000057e+02,-1.567187600000000032e+02,-3.347650150000000053e+02
-1.438789150000000063e+02,-1.567187600000000032e+02,-3.153900150000000053e+02
-1.435468840000000057e+02,-1.567187600000000032e+02,-3.147650150000000053e+02
-1.438789150000000063e+02,-1.560546980000000019e+02,-3.353900150000000053e+02
-1.435468840000000057e+02,-1.560546980000000019e+02,-3.347650150000000053e+02
-1.438789150000000063e+02,-1.560546980000000019e+02,-3.153900150000000053e+02
-1.435468840000000057e+02,-1.560546980000000019e+02,-3.147650150000000053e+02
-1.435468840000000057e+02,-1.553906360000000006e+02,-3.360150150000000053e+02
-1.435468840000000057e+02,-1.557226670000000013e+02,-3.353900150000000053e+02
-1.438789150000000063e+02,-1.553906360000000006e+02,-3.153900150000000053e+02
-1.435468840000000057e+02,-1.553906360000000006e+02,-3.147650150000000053e+02
-1.435468840000000057e+02,-1.547265739999999994e+02,-3.360150150000000053e+02
-1.438789150000000063e+02,-1.547265739999999994e+02,-3.153900150000000053e+02
-1.435468840000000057e+02,-1.547265739999999994e+02,-3.147650150000000053e+02
-1.435468840000000057e+02,-1.540625119999999981e+02,-3.360150150000000053e+02
-1.438789150000000063e+02,-1.540625119999999981e+02,-3.153900150000000053e+02
-1.435468840000000057e+02,-1.543945429999999988e+02,-3.141400150000000053e+02
-1.438789150000000063e+02,-1.540625119999999981e+02,-3.141400150000000053e+02
-1.435468840000000057e+02,-1.533984499999999969e+02,-3.360150150000000053e+02
-1.438789150000000063e+02,-1.533984499999999969e+02,-3.153900150000000053e+02
-1.435468840000000057e+02,-1.533984499999999969e+02,-3.147650150000000053e+02
-1.435468840000000057e+02,-1.537304809999999975e+02,-3.141400150000000053e+02
-1.435468840000000057e+02,-1.527343879999999956e+02,-3.360150150000000053e+02
-1.438789150000000063e+02,-1.527343879999999956e+02,-3.153900150000000053e+02
-1.435468840000000057e+02,-1.527343879999999956e+02,-3.147650150000000053e+02
-1.435468840000000057e+02,-1.520703259999999943e+02,-3.360150150000000053e+02
-1.438789150000000063e+02,-1.520703259999999943e+02,-3.153900150000000053e+02
-1.435468840000000057e+02,-1.520703259999999943e+02,-3.147650150000000053e+02
-1.435468840000000057e+02,-1.514062639999999931e+02,-3.360150150000000053e+02
-1.438789150000000063e+02,-1.514062639999999931e+02,-3.153900150000000053e+02
-1.435468840000000057e+02,-1.514062639999999931e+02,-3.147650150000000053e+02
-1.435468840000000057e+02,-1.507422019999999918e+02,-3.360150150000000053e+02
-1.438789150000000063e+02,-1.507422019999999918e+02,-3.153900150000000053e+02
-1.435468840000000057e+02,-1.507422019999999918e+02,-3.147650150000000053e+02
-1.435468840000000057e+02,-1.500781399999999906e+02,-3.360150150000000053e+02
-1.435468840000000057e+02,-1.504101709999999912e+02,-3.153900150000000053e+02
-1.435468840000000057e+02,-1.500781399999999906e+02,-3.160150150000000053e+02
-1.435468840000000057e+02,-1.494140779999999893e+02,-3.360150150000000053e+02
-1.435468840000000057e+02,-1.494140779999999893e+02,-3.160150150000000053e+02
-1.435468840000000057e+02,-1.487500159999999880e+02,-3.360150150000000053e+02
-1.435468840000000057e+02,-1.487500159999999880e+02,-3.160150150000000053e+02
-1.435468840000000057e+02,-1.480859539999999868e+02,-3.360150150000000053e+02
-1.438789150000000063e+02,-1.480859539999999868e+02,-3.166400150000000053e+02
-1.435468840000000057e+02,-1.480859539999999868e+02,-3.160150150000000053e+02
-1.435468840000000057e+02,-1.474218920000000139e+02,-3.360150150000000053e+02
-1.438789150000000063e+02,-1.474218920000000139e+02,-3.166400150000000053e+02
-1.435468840000000057e+02,-1.474218920000000139e+02,-3.160150150000000053e+02
-1.435468840000000057e+02,-1.467578300000000127e+02,-3.360150150000000053e+02
-1.435468840000000057e+02,-1.470898609999999849e+02,-3.166400150000000053e+02
-1.435468840000000057e+02,-1.467578300000000127e+02,-3.172650150000000053e+02
-1.435468840000000057e+02,-1.460937680000000114e+02,-3.360150150000000053e+02
-1.435468840000000057e+02,-1.460937680000000114e+02,-3.172650150000000053e+02
-1.435468840000000057e+02,-1.454297060000000101e+02,-3.360150150000000053e+02
-1.435468840000000057e+02,-1.454297060000000101e+02,-3.172650150000000053e+02
-1.435468840000000057e+02,-1.447656440000000089e+02,-3.360150150000000053e+02
-1.438789150000000063e+02,-1.447656440000000089e+02,-3.178900150000000053e+02
-1.435468840000000057e+02,-1.447656440000000089e+02,-3.172650150000000053e+02
-1.435468840000000057e+02,-1.441015820000000076e+02,-3.360150150000000053e+02
-1.435468840000000057e+02,-1.444336130000000082e+02,-3.178900150000000053e+02
-1.435468840000000057e+02,-1.441015820000000076e+02,-3.185150150000000053e+02
-1.435468840000000057e+02,-1.434375200000000063e+02,-3.360150150000000053e+02
-1.435468840000000057e+02,-1.437695510000000070e+02,-3.191400150000000053e+02
-1.435468840000000057e+02,-1.434375200000000063e+02,-3.197650150000000053e+02
-1.435468840000000057e+02,-1.427734580000000051e+02,-3.360150150000000053e+02
-1.435468840000000057e+02,-1.427734580000000051e+02,-3.197650150000000053e+02
-1.435468840000000057e+02,-1.421093960000000038e+02,-3.360150150000000053e+02
-1.435468840000000057e+02,-1.424414270000000045e+02,-3.341400150000000053e+02
-1.435468840000000057e+02,-1.421093960000000038e+02,-3.347650150000000053e+02
-1.435468840000000057e+02,-1.421093960000000038e+02,-3.335150150000000053e+02
-1.435468840000000057e+02,-1.421093960000000038e+02,-3.197650150000000053e+02
-1.435468840000000057e+02,-1.417773650000000032e+02,-3.353900150000000053e+02
-1.435468840000000057e+02,-1.414453340000000026e+02,-3.335150150000000053e+02
-1.435468840000000057e+02,-1.417773650000000032e+02,-3.216400150000000053e+02
-1.435468840000000057e+02,-1.414453340000000026e+02,-3.222650150000000053e+02
-1.435468840000000057e+02,-1.417773650000000032e+02,-3.203900150000000053e+02
-1.435468840000000057e+02,-1.407812720000000013e+02,-3.335150150000000053e+02
-1.438789150000000063e+02,-1.407812720000000013e+02,-3.241400150000000053e+02
-1.435468840000000057e+02,-1.407812720000000013e+02,-3.222650150000000053e+02
-1.435468840000000057e+02,-1.404492410000000007e+02,-3.328900150000000053e+02
-1.435468840000000057e+02,-1.401172100000000000e+02,-3.322650150000000053e+02
-1.435468840000000057e+02,-1.404492410000000007e+02,-3.303900150000000053e+02
-1.435468840000000057e+02,-1.401172100000000000e+02,-3.310150150000000053e+02
-1.435468840000000057e+02,-1.404492410000000007e+02,-3.291400150000000053e+02
-1.438789150000000063e+02,-1.401172100000000000e+02,-3.278900150000000053e+02
-1.435468840000000057e+02,-1.401172100000000000e+02,-3.285150150000000053e+02
-1.438789150000000063e+02,-1.401172100000000000e+02,-3.253900150000000053e+02
-1.435468840000000057e+02,-1.401172100000000000e+02,-3.247650150000000053e+02
-1.435468840000000057e+02,-1.404492410000000007e+02,-3.241400150000000053e+02
-1.438789150000000063e+02,-1.401172100000000000e+02,-3.228900150000000053e+02
-1.435468840000000057e+02,-1.401172100000000000e+02,-3.235150150000000053e+02
-1.435468840000000057e+02,-1.401172100000000000e+02,-3.222650150000000053e+02
-1.438789150000000063e+02,-1.394531479999999988e+02,-3.316400150000000053e+02
-1.435468840000000057e+02,-1.394531479999999988e+02,-3.322650150000000053e+02
-1.435468840000000057e+02,-1.394531479999999988e+02,-3.310150150000000053e+02
-1.435468840000000057e+02,-1.397851789999999994e+02,-3.278900150000000053e+02
-1.435468840000000057e+02,-1.397851789999999994e+02,-3.266400150000000053e+02
-1.435468840000000057e+02,-1.397851789999999994e+02,-3.253900150000000053e+02
-1.435468840000000057e+02,-1.397851789999999994e+02,-3.228900150000000053e+02
-1.435468840000000057e+02,-1.391211169999999981e+02,-3.316400150000000053e+02
-1.432148530000000051e+02,-1.686718759999999975e+02,-3.291400150000000053e+02
-1.428828220000000044e+02,-1.686718759999999975e+02,-3.297650150000000053e+02
-1.428828220000000044e+02,-1.690039069999999981e+02,-3.291400150000000053e+02
-1.428828220000000044e+02,-1.686718759999999975e+02,-3.285150150000000053e+02
-1.428828220000000044e+02,-1.680078139999999962e+02,-3.297650150000000053e+02
-1.428828220000000044e+02,-1.683398449999999968e+02,-3.278900150000000053e+02
-1.432148530000000051e+02,-1.680078139999999962e+02,-3.278900150000000053e+02
-1.428828220000000044e+02,-1.680078139999999962e+02,-3.272650150000000053e+02
-1.428828220000000044e+02,-1.673437519999999950e+02,-3.297650150000000053e+02
-1.432148530000000051e+02,-1.673437519999999950e+02,-3.278900150000000053e+02
-1.428828220000000044e+02,-1.673437519999999950e+02,-3.272650150000000053e+02
-1.428828220000000044e+02,-1.666796899999999937e+02,-3.297650150000000053e+02
-1.428828220000000044e+02,-1.666796899999999937e+02,-3.272650150000000053e+02
-1.428828220000000044e+02,-1.660156279999999924e+02,-3.310150150000000053e+02
-1.428828220000000044e+02,-1.663476589999999931e+02,-3.303900150000000053e+02
-1.428828220000000044e+02,-1.663476589999999931e+02,-3.266400150000000053e+02
-1.428828220000000044e+02,-1.660156279999999924e+02,-3.260150150000000053e+02
-1.428828220000000044e+02,-1.653515659999999912e+02,-3.322650150000000053e+02
-1.428828220000000044e+02,-1.656835969999999918e+02,-3.316400150000000053e+02
-1.428828220000000044e+02,-1.656835969999999918e+02,-3.253900150000000053e+02
-1.428828220000000044e+02,-1.653515659999999912e+02,-3.247650150000000053e+02
-1.432148530000000051e+02,-1.646875039999999899e+02,-3.328900150000000053e+02
-1.428828220000000044e+02,-1.646875039999999899e+02,-3.322650150000000053e+02
-1.428828220000000044e+02,-1.650195349999999905e+02,-3.241400150000000053e+02
-1.428828220000000044e+02,-1.646875039999999899e+02,-3.235150150000000053e+02
-1.428828220000000044e+02,-1.640234419999999886e+02,-3.335150150000000053e+02
-1.428828220000000044e+02,-1.643554729999999893e+02,-3.328900150000000053e+02
-1.428828220000000044e+02,-1.643554729999999893e+02,-3.228900150000000053e+02
-1.428828220000000044e+02,-1.640234419999999886e+02,-3.222650150000000053e+02
-1.428828220000000044e+02,-1.633593799999999874e+02,-3.335150150000000053e+02
-1.428828220000000044e+02,-1.636914109999999880e+02,-3.216400150000000053e+02
-1.432148530000000051e+02,-1.633593799999999874e+02,-3.216400150000000053e+02
-1.428828220000000044e+02,-1.633593799999999874e+02,-3.210150150000000053e+02
-1.428828220000000044e+02,-1.626953179999999861e+02,-3.335150150000000053e+02
-1.428828220000000044e+02,-1.630273489999999867e+02,-3.203900150000000053e+02
-1.428828220000000044e+02,-1.626953179999999861e+02,-3.197650150000000053e+02
-1.428828220000000044e+02,-1.620312559999999849e+02,-3.335150150000000053e+02
-1.428828220000000044e+02,-1.620312559999999849e+02,-3.197650150000000053e+02
-1.428828220000000044e+02,-1.613671940000000120e+02,-3.335150150000000053e+02
-1.428828220000000044e+02,-1.613671940000000120e+02,-3.197650150000000053e+02
-1.432148530000000051e+02,-1.607031320000000107e+02,-3.341400150000000053e+02
-1.428828220000000044e+02,-1.607031320000000107e+02,-3.335150150000000053e+02
-1.428828220000000044e+02,-1.610351630000000114e+02,-3.191400150000000053e+02
-1.428828220000000044e+02,-1.610351630000000114e+02,-3.178900150000000053e+02
-1.428828220000000044e+02,-1.607031320000000107e+02,-3.172650150000000053e+02
-1.428828220000000044e+02,-1.600390700000000095e+02,-3.347650150000000053e+02
-1.428828220000000044e+02,-1.603711010000000101e+02,-3.341400150000000053e+02
-1.428828220000000044e+02,-1.600390700000000095e+02,-3.172650150000000053e+02
-1.428828220000000044e+02,-1.593750080000000082e+02,-3.347650150000000053e+02
-1.428828220000000044e+02,-1.597070390000000089e+02,-3.166400150000000053e+02
-1.428828220000000044e+02,-1.593750080000000082e+02,-3.160150150000000053e+02
-1.428828220000000044e+02,-1.587109460000000070e+02,-3.347650150000000053e+02
-1.428828220000000044e+02,-1.587109460000000070e+02,-3.160150150000000053e+02
-1.428828220000000044e+02,-1.580468840000000057e+02,-3.347650150000000053e+02
-1.428828220000000044e+02,-1.583789150000000063e+02,-3.153900150000000053e+02
-1.432148530000000051e+02,-1.580468840000000057e+02,-3.153900150000000053e+02
-1.428828220000000044e+02,-1.580468840000000057e+02,-3.147650150000000053e+02
-1.428828220000000044e+02,-1.573828220000000044e+02,-3.347650150000000053e+02
-1.428828220000000044e+02,-1.573828220000000044e+02,-3.147650150000000053e+02
-1.428828220000000044e+02,-1.567187600000000032e+02,-3.347650150000000053e+02
-1.428828220000000044e+02,-1.567187600000000032e+02,-3.147650150000000053e+02
-1.428828220000000044e+02,-1.560546980000000019e+02,-3.347650150000000053e+02
-1.428828220000000044e+02,-1.560546980000000019e+02,-3.147650150000000053e+02
-1.432148530000000051e+02,-1.553906360000000006e+02,-3.353900150000000053e+02
-1.428828220000000044e+02,-1.553906360000000006e+02,-3.347650150000000053e+02
-1.428828220000000044e+02,-1.553906360000000006e+02,-3.147650150000000053e+02
-1.432148530000000051e+02,-1.547265739999999994e+02,-3.353900150000000053e+02
-1.428828220000000044e+02,-1.547265739999999994e+02,-3.347650150000000053e+02
-1.428828220000000044e+02,-1.550586050000000000e+02,-3.141400150000000053e+02
-1.432148530000000051e+02,-1.547265739999999994e+02,-3.141400150000000053e+02
-1.432148530000000051e+02,-1.540625119999999981e+02,-3.353900150000000053e+02
-1.428828220000000044e+02,-1.540625119999999981e+02,-3.347650150000000053e+02
-1.428828220000000044e+02,-1.533984499999999969e+02,-3.360150150000000053e+02
-1.428828220000000044e+02,-1.537304809999999975e+02,-3.353900150000000053e+02
-1.432148530000000051e+02,-1.533984499999999969e+02,-3.141400150000000053e+02
-1.428828220000000044e+02,-1.527343879999999956e+02,-3.360150150000000053e+02
-1.428828220000000044e+02,-1.530664189999999962e+02,-3.141400150000000053e+02
-1.428828220000000044e+02,-1.527343879999999956e+02,-3.147650150000000053e+02
-1.428828220000000044e+02,-1.520703259999999943e+02,-3.360150150000000053e+02
-1.428828220000000044e+02,-1.520703259999999943e+02,-3.147650150000000053e+02
-1.428828220000000044e+02,-1.514062639999999931e+02,-3.360150150000000053e+02
-1.428828220000000044e+02,-1.514062639999999931e+02,-3.147650150000000053e+02
-1.428828220000000044e+02,-1.507422019999999918e+02,-3.360150150000000053e+02
-1.428828220000000044e+02,-1.507422019999999918e+02,-3.147650150000000053e+02
-1.428828220000000044e+02,-1.500781399999999906e+02,-3.360150150000000053e+02
-1.432148530000000051e+02,-1.500781399999999906e+02,-3.153900150000000053e+02
-1.428828220000000044e+02,-1.500781399999999906e+02,-3.147650150000000053e+02
-1.428828220000000044e+02,-1.494140779999999893e+02,-3.360150150000000053e+02
-1.428828220000000044e+02,-1.497461089999999899e+02,-3.153900150000000053e+02
-1.428828220000000044e+02,-1.494140779999999893e+02,-3.160150150000000053e+02
-1.428828220000000044e+02,-1.487500159999999880e+02,-3.360150150000000053e+02
-1.428828220000000044e+02,-1.487500159999999880e+02,-3.160150150000000053e+02
-1.428828220000000044e+02,-1.480859539999999868e+02,-3.360150150000000053e+02
-1.428828220000000044e+02,-1.480859539999999868e+02,-3.160150150000000053e+02
-1.428828220000000044e+02,-1.474218920000000139e+02,-3.360150150000000053e+02
-1.428828220000000044e+02,-1.474218920000000139e+02,-3.160150150000000053e+02
-1.428828220000000044e+02,-1.467578300000000127e+02,-3.360150150000000053e+02
-1.428828220000000044e+02,-1.470898609999999849e+02,-3.166400150000000053e+02
-1.428828220000000044e+02,-1.467578300000000127e+02,-3.172650150000000053e+02
-1.428828220000000044e+02,-1.460937680000000114e+02,-3.360150150000000053e+02
-1.428828220000000044e+02,-1.460937680000000114e+02,-3.172650150000000053e+02
-1.428828220000000044e+02,-1.457617370000000108e+02,-3.353900150000000053e+02
-1.432148530000000051e+02,-1.454297060000000101e+02,-3.353900150000000053e+02
-1.428828220000000044e+02,-1.454297060000000101e+02,-3.347650150000000053e+02
-1.428828220000000044e+02,-1.454297060000000101e+02,-3.172650150000000053e+02
-1.432148530000000051e+02,-1.447656440000000089e+02,-3.353900150000000053e+02
-1.428828220000000044e+02,-1.447656440000000089e+02,-3.347650150000000053e+02
-1.428828220000000044e+02,-1.447656440000000089e+02,-3.172650150000000053e+02
-1.432148530000000051e+02,-1.441015820000000076e+02,-3.353900150000000053e+02
-1.428828220000000044e+02,-1.441015820000000076e+02,-3.347650150000000053e+02
-1.428828220000000044e+02,-1.444336130000000082e+02,-3.178900150000000053e+02
-1.428828220000000044e+02,-1.441015820000000076e+02,-3.185150150000000053e+02
-1.432148530000000051e+02,-1.434375200000000063e+02,-3.353900150000000053e+02
-1.428828220000000044e+02,-1.434375200000000063e+02,-3.347650150000000053e+02
-1.432148530000000051e+02,-1.434375200000000063e+02,-3.191400150000000053e+02
-1.428828220000000044e+02,-1.434375200000000063e+02,-3.185150150000000053e+02
-1.432148530000000051e+02,-1.427734580000000051e+02,-3.353900150000000053e+02
-1.428828220000000044e+02,-1.427734580000000051e+02,-3.347650150000000053e+02
-1.428828220000000044e+02,-1.431054890000000057e+02,-3.191400150000000053e+02
-1.428828220000000044e+02,-1.427734580000000051e+02,-3.197650150000000053e+02
-1.432148530000000051e+02,-1.421093960000000038e+02,-3.353900150000000053e+02
-1.428828220000000044e+02,-1.424414270000000045e+02,-3.341400150000000053e+02
-1.428828220000000044e+02,-1.421093960000000038e+02,-3.335150150000000053e+02
-1.428828220000000044e+02,-1.421093960000000038e+02,-3.197650150000000053e+02
-1.428828220000000044e+02,-1.414453340000000026e+02,-3.335150150000000053e+02
-1.428828220000000044e+02,-1.417773650000000032e+02,-3.216400150000000053e+02
-1.428828220000000044e+02,-1.414453340000000026e+02,-3.222650150000000053e+02
-1.428828220000000044e+02,-1.417773650000000032e+02,-3.203900150000000053e+02
-1.428828220000000044e+02,-1.407812720000000013e+02,-3.335150150000000053e+02
-1.428828220000000044e+02,-1.407812720000000013e+02,-3.222650150000000053e+02
-1.428828220000000044e+02,-1.404492410000000007e+02,-3.328900150000000053e+02
-1.428828220000000044e+02,-1.401172100000000000e+02,-3.322650150000000053e+02
-1.432148530000000051e+02,-1.401172100000000000e+02,-3.303900150000000053e+02
-1.432148530000000051e+02,-1.401172100000000000e+02,-3.291400150000000053e+02
-1.432148530000000051e+02,-1.401172100000000000e+02,-3.241400150000000053e+02
-1.428828220000000044e+02,-1.401172100000000000e+02,-3.222650150000000053e+02
-1.428828220000000044e+02,-1.397851789999999994e+02,-3.316400150000000053e+02
-1.432148530000000051e+02,-1.394531479999999988e+02,-3.316400150000000053e+02
-1.428828220000000044e+02,-1.397851789999999994e+02,-3.303900150000000053e+02
-1.428828220000000044e+02,-1.397851789999999994e+02,-3.291400150000000053e+02
-1.428828220000000044e+02,-1.397851789999999994e+02,-3.278900150000000053e+02
-1.428828220000000044e+02,-1.397851789999999994e+02,-3.266400150000000053e+02
-1.428828220000000044e+02,-1.397851789999999994e+02,-3.253900150000000053e+02
-1.428828220000000044e+02,-1.397851789999999994e+02,-3.241400150000000053e+02
-1.428828220000000044e+02,-1.397851789999999994e+02,-3.228900150000000053e+02
-1.422187600000000032e+02,-1.686718759999999975e+02,-3.297650150000000053e+02
-1.422187600000000032e+02,-1.690039069999999981e+02,-3.291400150000000053e+02
-1.422187600000000032e+02,-1.690039069999999981e+02,-3.278900150000000053e+02
-1.425507910000000038e+02,-1.686718759999999975e+02,-3.278900150000000053e+02
-1.422187600000000032e+02,-1.686718759999999975e+02,-3.272650150000000053e+02
-1.422187600000000032e+02,-1.680078139999999962e+02,-3.297650150000000053e+02
-1.422187600000000032e+02,-1.680078139999999962e+02,-3.272650150000000053e+02
-1.422187600000000032e+02,-1.673437519999999950e+02,-3.297650150000000053e+02
-1.422187600000000032e+02,-1.673437519999999950e+02,-3.272650150000000053e+02
-1.425507910000000038e+02,-1.666796899999999937e+02,-3.303900150000000053e+02
-1.422187600000000032e+02,-1.666796899999999937e+02,-3.310150150000000053e+02
-1.422187600000000032e+02,-1.670117209999999943e+02,-3.303900150000000053e+02
-1.422187600000000032e+02,-1.666796899999999937e+02,-3.272650150000000053e+02
-1.422187600000000032e+02,-1.660156279999999924e+02,-3.310150150000000053e+02
-1.422187600000000032e+02,-1.663476589999999931e+02,-3.266400150000000053e+02
-1.422187600000000032e+02,-1.660156279999999924e+02,-3.260150150000000053e+02
-1.422187600000000032e+02,-1.653515659999999912e+02,-3.322650150000000053e+02
-1.422187600000000032e+02,-1.656835969999999918e+02,-3.316400150000000053e+02
-1.422187600000000032e+02,-1.656835969999999918e+02,-3.253900150000000053e+02
-1.422187600000000032e+02,-1.653515659999999912e+02,-3.247650150000000053e+02
-1.422187600000000032e+02,-1.646875039999999899e+02,-3.322650150000000053e+02
-1.422187600000000032e+02,-1.650195349999999905e+02,-3.241400150000000053e+02
-1.422187600000000032e+02,-1.650195349999999905e+02,-3.228900150000000053e+02
-1.425507910000000038e+02,-1.646875039999999899e+02,-3.228900150000000053e+02
-1.422187600000000032e+02,-1.646875039999999899e+02,-3.222650150000000053e+02
-1.425507910000000038e+02,-1.640234419999999886e+02,-3.328900150000000053e+02
-1.422187600000000032e+02,-1.640234419999999886e+02,-3.322650150000000053e+02
-1.422187600000000032e+02,-1.640234419999999886e+02,-3.222650150000000053e+02
-1.422187600000000032e+02,-1.633593799999999874e+02,-3.335150150000000053e+02
-1.422187600000000032e+02,-1.636914109999999880e+02,-3.328900150000000053e+02
-1.422187600000000032e+02,-1.636914109999999880e+02,-3.216400150000000053e+02
-1.422187600000000032e+02,-1.636914109999999880e+02,-3.203900150000000053e+02
-1.425507910000000038e+02,-1.633593799999999874e+02,-3.203900150000000053e+02
-1.422187600000000032e+02,-1.633593799999999874e+02,-3.197650150000000053e+02
-1.422187600000000032e+02,-1.626953179999999861e+02,-3.335150150000000053e+02
-1.422187600000000032e+02,-1.626953179999999861e+02,-3.197650150000000053e+02
-1.422187600000000032e+02,-1.620312559999999849e+02,-3.335150150000000053e+02
-1.422187600000000032e+02,-1.620312559999999849e+02,-3.197650150000000053e+02
-1.422187600000000032e+02,-1.613671940000000120e+02,-3.335150150000000053e+02
-1.422187600000000032e+02,-1.616992250000000126e+02,-3.191400150000000053e+02
-1.425507910000000038e+02,-1.613671940000000120e+02,-3.191400150000000053e+02
-1.422187600000000032e+02,-1.613671940000000120e+02,-3.185150150000000053e+02
-1.422187600000000032e+02,-1.607031320000000107e+02,-3.335150150000000053e+02
-1.422187600000000032e+02,-1.610351630000000114e+02,-3.178900150000000053e+02
-1.422187600000000032e+02,-1.607031320000000107e+02,-3.172650150000000053e+02
-1.425507910000000038e+02,-1.600390700000000095e+02,-3.341400150000000053e+02
-1.422187600000000032e+02,-1.600390700000000095e+02,-3.335150150000000053e+02
-1.422187600000000032e+02,-1.600390700000000095e+02,-3.172650150000000053e+02
-1.425507910000000038e+02,-1.593750080000000082e+02,-3.341400150000000053e+02
-1.422187600000000032e+02,-1.593750080000000082e+02,-3.335150150000000053e+02
-1.422187600000000032e+02,-1.597070390000000089e+02,-3.166400150000000053e+02
-1.422187600000000032e+02,-1.593750080000000082e+02,-3.160150150000000053e+02
-1.422187600000000032e+02,-1.587109460000000070e+02,-3.347650150000000053e+02
-1.422187600000000032e+02,-1.590429770000000076e+02,-3.341400150000000053e+02
-1.422187600000000032e+02,-1.590429770000000076e+02,-3.153900150000000053e+02
-1.425507910000000038e+02,-1.587109460000000070e+02,-3.153900150000000053e+02
-1.422187600000000032e+02,-1.587109460000000070e+02,-3.147650150000000053e+02
-1.422187600000000032e+02,-1.580468840000000057e+02,-3.347650150000000053e+02
-1.422187600000000032e+02,-1.580468840000000057e+02,-3.147650150000000053e+02
-1.422187600000000032e+02,-1.573828220000000044e+02,-3.347650150000000053e+02
-1.422187600000000032e+02,-1.573828220000000044e+02,-3.147650150000000053e+02
-1.422187600000000032e+02,-1.567187600000000032e+02,-3.347650150000000053e+02
-1.422187600000000032e+02,-1.567187600000000032e+02,-3.147650150000000053e+02
-1.422187600000000032e+02,-1.560546980000000019e+02,-3.347650150000000053e+02
-1.422187600000000032e+02,-1.560546980000000019e+02,-3.147650150000000053e+02
-1.422187600000000032e+02,-1.553906360000000006e+02,-3.347650150000000053e+02
-1.422187600000000032e+02,-1.557226670000000013e+02,-3.141400150000000053e+02
-1.425507910000000038e+02,-1.553906360000000006e+02,-3.141400150000000053e+02
-1.422187600000000032e+02,-1.547265739999999994e+02,-3.347650150000000053e+02
-1.422187600000000032e+02,-1.540625119999999981e+02,-3.347650150000000053e+02
-1.425507910000000038e+02,-1.533984499999999969e+02,-3.353900150000000053e+02
-1.422187600000000032e+02,-1.533984499999999969e+02,-3.347650150000000053e+02
-1.422187600000000032e+02,-1.527343879999999956e+02,-3.360150150000000053e+02
-1.422187600000000032e+02,-1.530664189999999962e+02,-3.353900150000000053e+02
-1.425507910000000038e+02,-1.527343879999999956e+02,-3.141400150000000053e+02
-1.422187600000000032e+02,-1.520703259999999943e+02,-3.360150150000000053e+02
-1.425507910000000038e+02,-1.520703259999999943e+02,-3.141400150000000053e+02
-1.422187600000000032e+02,-1.514062639999999931e+02,-3.360150150000000053e+02
-1.425507910000000038e+02,-1.514062639999999931e+02,-3.141400150000000053e+02
-1.422187600000000032e+02,-1.507422019999999918e+02,-3.360150150000000053e+02
-1.422187600000000032e+02,-1.510742329999999924e+02,-3.141400150000000053e+02
-1.422187600000000032e+02,-1.507422019999999918e+02,-3.147650150000000053e+02
-1.422187600000000032e+02,-1.500781399999999906e+02,-3.360150150000000053e+02
-1.422187600000000032e+02,-1.500781399999999906e+02,-3.147650150000000053e+02
-1.422187600000000032e+02,-1.494140779999999893e+02,-3.360150150000000053e+02
-1.425507910000000038e+02,-1.494140779999999893e+02,-3.153900150000000053e+02
-1.422187600000000032e+02,-1.494140779999999893e+02,-3.147650150000000053e+02
-1.422187600000000032e+02,-1.487500159999999880e+02,-3.360150150000000053e+02
-1.422187600000000032e+02,-1.490820469999999887e+02,-3.153900150000000053e+02
-1.422187600000000032e+02,-1.487500159999999880e+02,-3.160150150000000053e+02
-1.422187600000000032e+02,-1.480859539999999868e+02,-3.360150150000000053e+02
-1.422187600000000032e+02,-1.480859539999999868e+02,-3.160150150000000053e+02
-1.422187600000000032e+02,-1.474218920000000139e+02,-3.360150150000000053e+02
-1.422187600000000032e+02,-1.474218920000000139e+02,-3.160150150000000053e+02
-1.422187600000000032e+02,-1.467578300000000127e+02,-3.360150150000000053e+02
-1.422187600000000032e+02,-1.470898609999999849e+02,-3.166400150000000053e+02
-1.422187600000000032e+02,-1.467578300000000127e+02,-3.172650150000000053e+02
-1.422187600000000032e+02,-1.464257989999999836e+02,-3.353900150000000053e+02
-1.425507910000000038e+02,-1.460937680000000114e+02,-3.353900150000000053e+02
-1.422187600000000032e+02,-1.460937680000000114e+02,-3.347650150000000053e+02
-1.422187600000000032e+02,-1.460937680000000114e+02,-3.172650150000000053e+02
-1.422187600000000032e+02,-1.454297060000000101e+02,-3.347650150000000053e+02
-1.422187600000000032e+02,-1.454297060000000101e+02,-3.172650150000000053e+02
-1.422187600000000032e+02,-1.447656440000000089e+02,-3.347650150000000053e+02
-1.422187600000000032e+02,-1.447656440000000089e+02,-3.172650150000000053e+02
-1.422187600000000032e+02,-1.441015820000000076e+02,-3.347650150000000053e+02
-1.425507910000000038e+02,-1.441015820000000076e+02,-3.178900150000000053e+02
-1.422187600000000032e+02,-1.441015820000000076e+02,-3.172650150000000053e+02
-1.422187600000000032e+02,-1.434375200000000063e+02,-3.347650150000000053e+02
-1.422187600000000032e+02,-1.437695510000000070e+02,-3.178900150000000053e+02
-1.422187600000000032e+02,-1.434375200000000063e+02,-3.185150150000000053e+02
-1.422187600000000032e+02,-1.427734580000000051e+02,-3.347650150000000053e+02
-1.422187600000000032e+02,-1.431054890000000057e+02,-3.191400150000000053e+02
-1.422187600000000032e+02,-1.427734580000000051e+02,-3.197650150000000053e+02
-1.422187600000000032e+02,-1.424414270000000045e+02,-3.341400150000000053e+02
-1.422187600000000032e+02,-1.421093960000000038e+02,-3.335150150000000053e+02
-1.422187600000000032e+02,-1.421093960000000038e+02,-3.197650150000000053e+02
-1.422187600000000032e+02,-1.414453340000000026e+02,-3.335150150000000053e+02
-1.425507910000000038e+02,-1.414453340000000026e+02,-3.216400150000000053e+02
-1.425507910000000038e+02,-1.414453340000000026e+02,-3.203900150000000053e+02
-1.422187600000000032e+02,-1.414453340000000026e+02,-3.197650150000000053e+02
-1.422187600000000032e+02,-1.407812720000000013e+02,-3.335150150000000053e+02
-1.422187600000000032e+02,-1.411133030000000019e+02,-3.216400150000000053e+02
-1.422187600000000032e+02,-1.407812720000000013e+02,-3.222650150000000053e+02
-1.422187600000000032e+02,-1.411133030000000019e+02,-3.203900150000000053e+02
-1.422187600000000032e+02,-1.404492410000000007e+02,-3.328900150000000053e+02
-1.422187600000000032e+02,-1.401172100000000000e+02,-3.322650150000000053e+02
-1.422187600000000032e+02,-1.401172100000000000e+02,-3.222650150000000053e+02
-1.422187600000000032e+02,-1.397851789999999994e+02,-3.316400150000000053e+02
-1.422187600000000032e+02,-1.397851789999999994e+02,-3.303900150000000053e+02
-1.422187600000000032e+02,-1.397851789999999994e+02,-3.291400150000000053e+02
-1.422187600000000032e+02,-1.397851789999999994e+02,-3.278900150000000053e+02
-1.422187600000000032e+02,-1.397851789999999994e+02,-3.266400150000000053e+02
-1.422187600000000032e+02,-1.397851789999999994e+02,-3.253900150000000053e+02
-1.422187600000000032e+02,-1.397851789999999994e+02,-3.241400150000000053e+02
-1.422187600000000032e+02,-1.397851789999999994e+02,-3.228900150000000053e+02
-1.418867290000000025e+02,-1.693359379999999987e+02,-3.291400150000000053e+02
-1.415546980000000019e+02,-1.693359379999999987e+02,-3.297650150000000053e+02
-1.415546980000000019e+02,-1.696679689999999994e+02,-3.291400150000000053e+02
-1.415546980000000019e+02,-1.696679689999999994e+02,-3.278900150000000053e+02
-1.418867290000000025e+02,-1.693359379999999987e+02,-3.278900150000000053e+02
-1.415546980000000019e+02,-1.693359379999999987e+02,-3.272650150000000053e+02
-1.415546980000000019e+02,-1.686718759999999975e+02,-3.297650150000000053e+02
-1.415546980000000019e+02,-1.686718759999999975e+02,-3.272650150000000053e+02
-1.415546980000000019e+02,-1.680078139999999962e+02,-3.297650150000000053e+02
-1.415546980000000019e+02,-1.680078139999999962e+02,-3.272650150000000053e+02
-1.418867290000000025e+02,-1.673437519999999950e+02,-3.303900150000000053e+02
-1.415546980000000019e+02,-1.673437519999999950e+02,-3.310150150000000053e+02
-1.415546980000000019e+02,-1.676757829999999956e+02,-3.303900150000000053e+02
