-1.955562439999999924e+02,-1.907843780000000038e+02,-3.102500000000000000e+02
-1.955562439999999924e+02,-1.903937530000000038e+02,-3.090000000000000000e+02
-1.955562439999999924e+02,-1.896125030000000038e+02,-3.140000000000000000e+02
-1.955562439999999924e+02,-1.896125030000000038e+02,-3.090000000000000000e+02
-1.955562439999999924e+02,-1.888312530000000038e+02,-3.140000000000000000e+02
-1.955562439999999924e+02,-1.888312530000000038e+02,-3.090000000000000000e+02
-1.955562439999999924e+02,-1.880500030000000038e+02,-3.140000000000000000e+02
-1.955562439999999924e+02,-1.880500030000000038e+02,-3.090000000000000000e+02
-1.955562439999999924e+02,-1.872687530000000038e+02,-3.140000000000000000e+02
-1.955562439999999924e+02,-1.872687530000000038e+02,-3.090000000000000000e+02
-1.955562439999999924e+02,-1.868781280000000038e+02,-3.152500000000000000e+02
-1.955562439999999924e+02,-1.868781280000000038e+02,-3.177500000000000000e+02
-1.955562439999999924e+02,-1.868781280000000038e+02,-3.077500000000000000e+02
-1.955562439999999924e+02,-1.864875030000000038e+02,-3.065000000000000000e+02
-1.955562439999999924e+02,-1.857062530000000038e+02,-3.065000000000000000e+02
-1.955562439999999924e+02,-1.853156280000000038e+02,-3.052500000000000000e+02
-1.959468689999999924e+02,-1.849250030000000038e+02,-3.052500000000000000e+02
-1.955562439999999924e+02,-1.849250030000000038e+02,-3.040000000000000000e+02
-1.955562439999999924e+02,-1.841437530000000038e+02,-3.040000000000000000e+02
-1.955562439999999924e+02,-1.833625030000000038e+02,-3.040000000000000000e+02
-1.955562439999999924e+02,-1.825812530000000038e+02,-3.040000000000000000e+02
-1.955562439999999924e+02,-1.818000030000000038e+02,-3.040000000000000000e+02
-1.955562439999999924e+02,-1.814093780000000038e+02,-3.027500000000000000e+02
-1.955562439999999924e+02,-1.814093780000000038e+02,-3.002500000000000000e+02
-1.959468689999999924e+02,-1.810187530000000038e+02,-3.002500000000000000e+02
-1.955562439999999924e+02,-1.810187530000000038e+02,-2.990000000000000000e+02
-1.955562439999999924e+02,-1.806281280000000038e+02,-3.002500000000000000e+02
-1.955562439999999924e+02,-1.802375030000000038e+02,-3.015000000000000000e+02
-1.955562439999999924e+02,-1.798468780000000038e+02,-3.177500000000000000e+02
-1.959468689999999924e+02,-1.794562530000000038e+02,-3.177500000000000000e+02
-1.955562439999999924e+02,-1.794562530000000038e+02,-3.165000000000000000e+02
-1.955562439999999924e+02,-1.794562530000000038e+02,-3.015000000000000000e+02
-1.955562439999999924e+02,-1.790656280000000038e+02,-3.152500000000000000e+02
-1.959468689999999924e+02,-1.786750030000000038e+02,-3.152500000000000000e+02
-1.959468689999999924e+02,-1.786750030000000038e+02,-3.177500000000000000e+02
-1.955562439999999924e+02,-1.786750030000000038e+02,-3.140000000000000000e+02
-1.955562439999999924e+02,-1.786750030000000038e+02,-3.015000000000000000e+02
-1.959468689999999924e+02,-1.778937530000000038e+02,-3.152500000000000000e+02
-1.955562439999999924e+02,-1.778937530000000038e+02,-3.140000000000000000e+02
-1.955562439999999924e+02,-1.778937530000000038e+02,-3.015000000000000000e+02
-1.955562439999999924e+02,-1.771125030000000038e+02,-3.140000000000000000e+02
-1.959468689999999924e+02,-1.771125030000000038e+02,-3.027500000000000000e+02
-1.955562439999999924e+02,-1.771125030000000038e+02,-3.015000000000000000e+02
-1.955562439999999924e+02,-1.763312530000000038e+02,-3.140000000000000000e+02
-1.955562439999999924e+02,-1.767218780000000038e+02,-3.027500000000000000e+02
-1.955562439999999924e+02,-1.763312530000000038e+02,-3.040000000000000000e+02
-1.955562439999999924e+02,-1.755500030000000038e+02,-3.140000000000000000e+02
-1.955562439999999924e+02,-1.759406280000000038e+02,-3.052500000000000000e+02
-1.955562439999999924e+02,-1.755500030000000038e+02,-3.065000000000000000e+02
-1.959468689999999924e+02,-1.747687530000000038e+02,-3.152500000000000000e+02
-1.955562439999999924e+02,-1.747687530000000038e+02,-3.140000000000000000e+02
-1.955562439999999924e+02,-1.747687530000000038e+02,-3.065000000000000000e+02
-1.959468689999999924e+02,-1.739875030000000038e+02,-3.152500000000000000e+02
-1.955562439999999924e+02,-1.739875030000000038e+02,-3.140000000000000000e+02
-1.955562439999999924e+02,-1.739875030000000038e+02,-3.065000000000000000e+02
-1.955562439999999924e+02,-1.732062530000000038e+02,-3.165000000000000000e+02
-1.955562439999999924e+02,-1.735968780000000038e+02,-3.152500000000000000e+02
-1.955562439999999924e+02,-1.732062530000000038e+02,-3.065000000000000000e+02
-1.955562439999999924e+02,-1.724250030000000038e+02,-3.165000000000000000e+02
-1.959468689999999924e+02,-1.724250030000000038e+02,-3.077500000000000000e+02
-1.955562439999999924e+02,-1.724250030000000038e+02,-3.065000000000000000e+02
-1.955562439999999924e+02,-1.716437530000000038e+02,-3.165000000000000000e+02
-1.955562439999999924e+02,-1.720343780000000038e+02,-3.077500000000000000e+02
-1.955562439999999924e+02,-1.716437530000000038e+02,-3.090000000000000000e+02
-1.955562439999999924e+02,-1.708625030000000038e+02,-3.165000000000000000e+02
-1.959468689999999924e+02,-1.708625030000000038e+02,-3.102500000000000000e+02
-1.955562439999999924e+02,-1.708625030000000038e+02,-3.090000000000000000e+02
-1.955562439999999924e+02,-1.700812530000000038e+02,-3.165000000000000000e+02
-1.955562439999999924e+02,-1.704718780000000038e+02,-3.102500000000000000e+02
-1.955562439999999924e+02,-1.700812530000000038e+02,-3.115000000000000000e+02
-1.955562439999999924e+02,-1.693000030000000038e+02,-3.165000000000000000e+02
-1.955562439999999924e+02,-1.693000030000000038e+02,-3.115000000000000000e+02
-1.955562439999999924e+02,-1.685187530000000038e+02,-3.165000000000000000e+02
-1.955562439999999924e+02,-1.685187530000000038e+02,-3.115000000000000000e+02
-1.955562439999999924e+02,-1.677375030000000038e+02,-3.165000000000000000e+02
-1.955562439999999924e+02,-1.677375030000000038e+02,-3.115000000000000000e+02
-1.955562439999999924e+02,-1.669562530000000038e+02,-3.165000000000000000e+02
-1.955562439999999924e+02,-1.669562530000000038e+02,-3.115000000000000000e+02
-1.955562439999999924e+02,-1.661750030000000038e+02,-3.165000000000000000e+02
-1.955562439999999924e+02,-1.661750030000000038e+02,-3.115000000000000000e+02
-1.955562439999999924e+02,-1.653937530000000038e+02,-3.165000000000000000e+02
-1.955562439999999924e+02,-1.653937530000000038e+02,-3.115000000000000000e+02
-1.955562439999999924e+02,-1.646125030000000038e+02,-3.165000000000000000e+02
-1.955562439999999924e+02,-1.646125030000000038e+02,-3.115000000000000000e+02
-1.955562439999999924e+02,-1.638312530000000038e+02,-3.165000000000000000e+02
-1.955562439999999924e+02,-1.642218780000000038e+02,-3.127500000000000000e+02
-1.955562439999999924e+02,-1.638312530000000038e+02,-3.140000000000000000e+02
-1.955562439999999924e+02,-1.630500030000000038e+02,-3.165000000000000000e+02
-1.955562439999999924e+02,-1.630500030000000038e+02,-3.140000000000000000e+02
-1.955562439999999924e+02,-1.626593780000000038e+02,-3.152500000000000000e+02
-1.959468689999999924e+02,-1.622687530000000038e+02,-3.152500000000000000e+02
-1.951656189999999924e+02,-1.927375030000000038e+02,-3.127500000000000000e+02
-1.947749939999999924e+02,-1.927375030000000038e+02,-3.140000000000000000e+02
-1.947749939999999924e+02,-1.931281280000000038e+02,-3.127500000000000000e+02
-1.947749939999999924e+02,-1.927375030000000038e+02,-3.115000000000000000e+02
-1.951656189999999924e+02,-1.919562530000000038e+02,-3.127500000000000000e+02
-1.947749939999999924e+02,-1.919562530000000038e+02,-3.140000000000000000e+02
-1.947749939999999924e+02,-1.919562530000000038e+02,-3.115000000000000000e+02
-1.947749939999999924e+02,-1.911750030000000038e+02,-3.140000000000000000e+02
-1.947749939999999924e+02,-1.911750030000000038e+02,-3.115000000000000000e+02
-1.947749939999999924e+02,-1.903937530000000038e+02,-3.140000000000000000e+02
-1.951656189999999924e+02,-1.903937530000000038e+02,-3.102500000000000000e+02
-1.947749939999999924e+02,-1.903937530000000038e+02,-3.115000000000000000e+02
-1.947749939999999924e+02,-1.896125030000000038e+02,-3.140000000000000000e+02
-1.947749939999999924e+02,-1.900031280000000038e+02,-3.102500000000000000e+02
-1.947749939999999924e+02,-1.896125030000000038e+02,-3.090000000000000000e+02
-1.947749939999999924e+02,-1.888312530000000038e+02,-3.140000000000000000e+02
-1.947749939999999924e+02,-1.888312530000000038e+02,-3.090000000000000000e+02
-1.947749939999999924e+02,-1.880500030000000038e+02,-3.140000000000000000e+02
-1.947749939999999924e+02,-1.880500030000000038e+02,-3.090000000000000000e+02
-1.947749939999999924e+02,-1.872687530000000038e+02,-3.140000000000000000e+02
-1.947749939999999924e+02,-1.876593780000000038e+02,-3.077500000000000000e+02
-1.951656189999999924e+02,-1.872687530000000038e+02,-3.077500000000000000e+02
-1.947749939999999924e+02,-1.872687530000000038e+02,-3.065000000000000000e+02
-1.947749939999999924e+02,-1.868781280000000038e+02,-3.152500000000000000e+02
-1.947749939999999924e+02,-1.868781280000000038e+02,-3.177500000000000000e+02
-1.947749939999999924e+02,-1.864875030000000038e+02,-3.065000000000000000e+02
-1.947749939999999924e+02,-1.857062530000000038e+02,-3.065000000000000000e+02
-1.947749939999999924e+02,-1.853156280000000038e+02,-3.052500000000000000e+02
-1.947749939999999924e+02,-1.849250030000000038e+02,-3.040000000000000000e+02
-1.947749939999999924e+02,-1.841437530000000038e+02,-3.040000000000000000e+02
-1.947749939999999924e+02,-1.833625030000000038e+02,-3.040000000000000000e+02
-1.947749939999999924e+02,-1.825812530000000038e+02,-3.040000000000000000e+02
-1.947749939999999924e+02,-1.818000030000000038e+02,-3.040000000000000000e+02
-1.951656189999999924e+02,-1.810187530000000038e+02,-3.177500000000000000e+02
-1.951656189999999924e+02,-1.810187530000000038e+02,-3.152500000000000000e+02
-1.947749939999999924e+02,-1.814093780000000038e+02,-3.152500000000000000e+02
-1.947749939999999924e+02,-1.814093780000000038e+02,-3.177500000000000000e+02
-1.947749939999999924e+02,-1.810187530000000038e+02,-3.140000000000000000e+02
-1.947749939999999924e+02,-1.814093780000000038e+02,-3.027500000000000000e+02
-1.947749939999999924e+02,-1.814093780000000038e+02,-3.002500000000000000e+02
-1.947749939999999924e+02,-1.810187530000000038e+02,-2.990000000000000000e+02
-1.951656189999999924e+02,-1.802375030000000038e+02,-3.152500000000000000e+02
-1.951656189999999924e+02,-1.802375030000000038e+02,-3.177500000000000000e+02
-1.947749939999999924e+02,-1.802375030000000038e+02,-3.140000000000000000e+02
-1.951656189999999924e+02,-1.802375030000000038e+02,-3.002500000000000000e+02
-1.947749939999999924e+02,-1.802375030000000038e+02,-2.990000000000000000e+02
-1.951656189999999924e+02,-1.794562530000000038e+02,-3.152500000000000000e+02
-1.947749939999999924e+02,-1.794562530000000038e+02,-3.140000000000000000e+02
-1.951656189999999924e+02,-1.794562530000000038e+02,-3.002500000000000000e+02
-1.947749939999999924e+02,-1.794562530000000038e+02,-2.990000000000000000e+02
-1.947749939999999924e+02,-1.786750030000000038e+02,-3.140000000000000000e+02
-1.947749939999999924e+02,-1.790656280000000038e+02,-3.002500000000000000e+02
-1.947749939999999924e+02,-1.786750030000000038e+02,-3.015000000000000000e+02
-1.947749939999999924e+02,-1.778937530000000038e+02,-3.140000000000000000e+02
-1.947749939999999924e+02,-1.778937530000000038e+02,-3.015000000000000000e+02
-1.947749939999999924e+02,-1.771125030000000038e+02,-3.140000000000000000e+02
-1.947749939999999924e+02,-1.771125030000000038e+02,-3.015000000000000000e+02
-1.947749939999999924e+02,-1.763312530000000038e+02,-3.140000000000000000e+02
-1.951656189999999924e+02,-1.763312530000000038e+02,-3.027500000000000000e+02
-1.947749939999999924e+02,-1.763312530000000038e+02,-3.015000000000000000e+02
-1.947749939999999924e+02,-1.755500030000000038e+02,-3.140000000000000000e+02
-1.951656189999999924e+02,-1.755500030000000038e+02,-3.052500000000000000e+02
-1.947749939999999924e+02,-1.755500030000000038e+02,-3.040000000000000000e+02
-1.947749939999999924e+02,-1.759406280000000038e+02,-3.027500000000000000e+02
-1.947749939999999924e+02,-1.747687530000000038e+02,-3.140000000000000000e+02
-1.947749939999999924e+02,-1.751593780000000038e+02,-3.052500000000000000e+02
-1.947749939999999924e+02,-1.747687530000000038e+02,-3.065000000000000000e+02
-1.947749939999999924e+02,-1.739875030000000038e+02,-3.140000000000000000e+02
-1.947749939999999924e+02,-1.739875030000000038e+02,-3.065000000000000000e+02
-1.951656189999999924e+02,-1.732062530000000038e+02,-3.152500000000000000e+02
-1.947749939999999924e+02,-1.732062530000000038e+02,-3.140000000000000000e+02
-1.947749939999999924e+02,-1.732062530000000038e+02,-3.065000000000000000e+02
-1.947749939999999924e+02,-1.724250030000000038e+02,-3.165000000000000000e+02
-1.947749939999999924e+02,-1.728156280000000038e+02,-3.152500000000000000e+02
-1.947749939999999924e+02,-1.724250030000000038e+02,-3.065000000000000000e+02
-1.947749939999999924e+02,-1.716437530000000038e+02,-3.165000000000000000e+02
-1.951656189999999924e+02,-1.716437530000000038e+02,-3.077500000000000000e+02
-1.947749939999999924e+02,-1.716437530000000038e+02,-3.065000000000000000e+02
-1.947749939999999924e+02,-1.708625030000000038e+02,-3.165000000000000000e+02
-1.947749939999999924e+02,-1.712531280000000038e+02,-3.077500000000000000e+02
-1.947749939999999924e+02,-1.708625030000000038e+02,-3.090000000000000000e+02
-1.947749939999999924e+02,-1.700812530000000038e+02,-3.165000000000000000e+02
-1.947749939999999924e+02,-1.704718780000000038e+02,-3.102500000000000000e+02
-1.947749939999999924e+02,-1.700812530000000038e+02,-3.115000000000000000e+02
-1.947749939999999924e+02,-1.693000030000000038e+02,-3.165000000000000000e+02
-1.947749939999999924e+02,-1.693000030000000038e+02,-3.115000000000000000e+02
-1.947749939999999924e+02,-1.685187530000000038e+02,-3.165000000000000000e+02
-1.947749939999999924e+02,-1.685187530000000038e+02,-3.115000000000000000e+02
-1.947749939999999924e+02,-1.677375030000000038e+02,-3.165000000000000000e+02
-1.947749939999999924e+02,-1.677375030000000038e+02,-3.115000000000000000e+02
-1.947749939999999924e+02,-1.669562530000000038e+02,-3.165000000000000000e+02
-1.947749939999999924e+02,-1.669562530000000038e+02,-3.115000000000000000e+02
-1.947749939999999924e+02,-1.661750030000000038e+02,-3.165000000000000000e+02
-1.947749939999999924e+02,-1.661750030000000038e+02,-3.115000000000000000e+02
-1.947749939999999924e+02,-1.653937530000000038e+02,-3.165000000000000000e+02
-1.947749939999999924e+02,-1.653937530000000038e+02,-3.115000000000000000e+02
-1.947749939999999924e+02,-1.646125030000000038e+02,-3.165000000000000000e+02
-1.947749939999999924e+02,-1.646125030000000038e+02,-3.115000000000000000e+02
-1.947749939999999924e+02,-1.638312530000000038e+02,-3.165000000000000000e+02
-1.947749939999999924e+02,-1.642218780000000038e+02,-3.127500000000000000e+02
-1.947749939999999924e+02,-1.638312530000000038e+02,-3.140000000000000000e+02
-1.947749939999999924e+02,-1.634406280000000038e+02,-3.152500000000000000e+02
-1.951656189999999924e+02,-1.630500030000000038e+02,-3.152500000000000000e+02
-1.939937439999999924e+02,-1.927375030000000038e+02,-3.140000000000000000e+02
-1.939937439999999924e+02,-1.931281280000000038e+02,-3.127500000000000000e+02
-1.939937439999999924e+02,-1.927375030000000038e+02,-3.115000000000000000e+02
-1.939937439999999924e+02,-1.919562530000000038e+02,-3.140000000000000000e+02
-1.939937439999999924e+02,-1.919562530000000038e+02,-3.115000000000000000e+02
-1.939937439999999924e+02,-1.911750030000000038e+02,-3.140000000000000000e+02
-1.939937439999999924e+02,-1.911750030000000038e+02,-3.115000000000000000e+02
-1.939937439999999924e+02,-1.903937530000000038e+02,-3.140000000000000000e+02
-1.939937439999999924e+02,-1.903937530000000038e+02,-3.115000000000000000e+02
-1.939937439999999924e+02,-1.896125030000000038e+02,-3.140000000000000000e+02
-1.943843689999999924e+02,-1.896125030000000038e+02,-3.102500000000000000e+02
-1.939937439999999924e+02,-1.896125030000000038e+02,-3.115000000000000000e+02
-1.939937439999999924e+02,-1.888312530000000038e+02,-3.140000000000000000e+02
-1.939937439999999924e+02,-1.892218780000000038e+02,-3.102500000000000000e+02
-1.939937439999999924e+02,-1.888312530000000038e+02,-3.090000000000000000e+02
-1.939937439999999924e+02,-1.880500030000000038e+02,-3.140000000000000000e+02
-1.939937439999999924e+02,-1.880500030000000038e+02,-3.090000000000000000e+02
-1.939937439999999924e+02,-1.872687530000000038e+02,-3.140000000000000000e+02
-1.939937439999999924e+02,-1.876593780000000038e+02,-3.077500000000000000e+02
-1.939937439999999924e+02,-1.872687530000000038e+02,-3.065000000000000000e+02
-1.939937439999999924e+02,-1.868781280000000038e+02,-3.152500000000000000e+02
-1.939937439999999924e+02,-1.868781280000000038e+02,-3.177500000000000000e+02
-1.939937439999999924e+02,-1.864875030000000038e+02,-3.065000000000000000e+02
-1.939937439999999924e+02,-1.860968780000000038e+02,-3.052500000000000000e+02
-1.943843689999999924e+02,-1.857062530000000038e+02,-3.052500000000000000e+02
-1.939937439999999924e+02,-1.857062530000000038e+02,-3.040000000000000000e+02
-1.939937439999999924e+02,-1.849250030000000038e+02,-3.040000000000000000e+02
-1.939937439999999924e+02,-1.841437530000000038e+02,-3.040000000000000000e+02
-1.939937439999999924e+02,-1.833625030000000038e+02,-3.040000000000000000e+02
-1.939937439999999924e+02,-1.829718780000000038e+02,-3.177500000000000000e+02
-1.943843689999999924e+02,-1.825812530000000038e+02,-3.177500000000000000e+02
-1.939937439999999924e+02,-1.825812530000000038e+02,-3.165000000000000000e+02
-1.939937439999999924e+02,-1.825812530000000038e+02,-3.040000000000000000e+02
-1.939937439999999924e+02,-1.821906280000000038e+02,-3.152500000000000000e+02
-1.943843689999999924e+02,-1.818000030000000038e+02,-3.152500000000000000e+02
-1.943843689999999924e+02,-1.818000030000000038e+02,-3.177500000000000000e+02
-1.939937439999999924e+02,-1.818000030000000038e+02,-3.140000000000000000e+02
-1.939937439999999924e+02,-1.818000030000000038e+02,-3.040000000000000000e+02
-1.939937439999999924e+02,-1.810187530000000038e+02,-3.140000000000000000e+02
-1.939937439999999924e+02,-1.814093780000000038e+02,-3.027500000000000000e+02
-1.939937439999999924e+02,-1.814093780000000038e+02,-3.002500000000000000e+02
-1.939937439999999924e+02,-1.810187530000000038e+02,-2.990000000000000000e+02
-1.939937439999999924e+02,-1.802375030000000038e+02,-3.140000000000000000e+02
-1.939937439999999924e+02,-1.802375030000000038e+02,-2.990000000000000000e+02
-1.939937439999999924e+02,-1.794562530000000038e+02,-3.140000000000000000e+02
-1.939937439999999924e+02,-1.794562530000000038e+02,-2.990000000000000000e+02
-1.939937439999999924e+02,-1.786750030000000038e+02,-3.140000000000000000e+02
-1.943843689999999924e+02,-1.786750030000000038e+02,-3.002500000000000000e+02
-1.939937439999999924e+02,-1.786750030000000038e+02,-2.990000000000000000e+02
-1.939937439999999924e+02,-1.778937530000000038e+02,-3.140000000000000000e+02
-1.943843689999999924e+02,-1.778937530000000038e+02,-3.002500000000000000e+02
-1.939937439999999924e+02,-1.778937530000000038e+02,-2.990000000000000000e+02
-1.939937439999999924e+02,-1.771125030000000038e+02,-3.140000000000000000e+02
-1.939937439999999924e+02,-1.775031280000000038e+02,-3.002500000000000000e+02
-1.939937439999999924e+02,-1.771125030000000038e+02,-3.015000000000000000e+02
-1.939937439999999924e+02,-1.763312530000000038e+02,-3.140000000000000000e+02
-1.939937439999999924e+02,-1.763312530000000038e+02,-3.015000000000000000e+02
-1.939937439999999924e+02,-1.755500030000000038e+02,-3.140000000000000000e+02
-1.943843689999999924e+02,-1.755500030000000038e+02,-3.027500000000000000e+02
-1.939937439999999924e+02,-1.755500030000000038e+02,-3.015000000000000000e+02
-1.939937439999999924e+02,-1.747687530000000038e+02,-3.140000000000000000e+02
-1.943843689999999924e+02,-1.747687530000000038e+02,-3.052500000000000000e+02
-1.939937439999999924e+02,-1.747687530000000038e+02,-3.040000000000000000e+02
-1.939937439999999924e+02,-1.751593780000000038e+02,-3.027500000000000000e+02
-1.939937439999999924e+02,-1.739875030000000038e+02,-3.140000000000000000e+02
-1.939937439999999924e+02,-1.743781280000000038e+02,-3.052500000000000000e+02
-1.939937439999999924e+02,-1.739875030000000038e+02,-3.065000000000000000e+02
-1.939937439999999924e+02,-1.732062530000000038e+02,-3.140000000000000000e+02
-1.939937439999999924e+02,-1.732062530000000038e+02,-3.065000000000000000e+02
-1.943843689999999924e+02,-1.724250030000000038e+02,-3.152500000000000000e+02
-1.939937439999999924e+02,-1.724250030000000038e+02,-3.140000000000000000e+02
-1.939937439999999924e+02,-1.724250030000000038e+02,-3.065000000000000000e+02
-1.943843689999999924e+02,-1.716437530000000038e+02,-3.152500000000000000e+02
-1.939937439999999924e+02,-1.716437530000000038e+02,-3.140000000000000000e+02
-1.939937439999999924e+02,-1.716437530000000038e+02,-3.065000000000000000e+02
-1.939937439999999924e+02,-1.708625030000000038e+02,-3.165000000000000000e+02
-1.939937439999999924e+02,-1.712531280000000038e+02,-3.152500000000000000e+02
-1.943843689999999924e+02,-1.708625030000000038e+02,-3.102500000000000000e+02
-1.939937439999999924e+02,-1.712531280000000038e+02,-3.102500000000000000e+02
-1.939937439999999924e+02,-1.708625030000000038e+02,-3.115000000000000000e+02
-1.939937439999999924e+02,-1.712531280000000038e+02,-3.077500000000000000e+02
-1.939937439999999924e+02,-1.700812530000000038e+02,-3.165000000000000000e+02
-1.939937439999999924e+02,-1.700812530000000038e+02,-3.115000000000000000e+02
-1.939937439999999924e+02,-1.693000030000000038e+02,-3.165000000000000000e+02
-1.939937439999999924e+02,-1.693000030000000038e+02,-3.115000000000000000e+02
-1.939937439999999924e+02,-1.685187530000000038e+02,-3.165000000000000000e+02
-1.939937439999999924e+02,-1.685187530000000038e+02,-3.115000000000000000e+02
-1.939937439999999924e+02,-1.677375030000000038e+02,-3.165000000000000000e+02
-1.939937439999999924e+02,-1.677375030000000038e+02,-3.115000000000000000e+02
-1.939937439999999924e+02,-1.669562530000000038e+02,-3.165000000000000000e+02
-1.939937439999999924e+02,-1.669562530000000038e+02,-3.115000000000000000e+02
-1.939937439999999924e+02,-1.661750030000000038e+02,-3.165000000000000000e+02
-1.939937439999999924e+02,-1.661750030000000038e+02,-3.115000000000000000e+02
-1.939937439999999924e+02,-1.653937530000000038e+02,-3.165000000000000000e+02
-1.939937439999999924e+02,-1.653937530000000038e+02,-3.115000000000000000e+02
-1.939937439999999924e+02,-1.646125030000000038e+02,-3.165000000000000000e+02
-1.939937439999999924e+02,-1.646125030000000038e+02,-3.115000000000000000e+02
-1.939937439999999924e+02,-1.642218780000000038e+02,-3.152500000000000000e+02
-1.943843689999999924e+02,-1.638312530000000038e+02,-3.152500000000000000e+02
-1.939937439999999924e+02,-1.642218780000000038e+02,-3.127500000000000000e+02
-1.936031189999999924e+02,-1.927375030000000038e+02,-3.127500000000000000e+02
-1.936031189999999924e+02,-1.919562530000000038e+02,-3.127500000000000000e+02
-1.932124939999999924e+02,-1.911750030000000038e+02,-3.140000000000000000e+02
-1.932124939999999924e+02,-1.915656280000000038e+02,-3.127500000000000000e+02
-1.932124939999999924e+02,-1.911750030000000038e+02,-3.115000000000000000e+02
-1.932124939999999924e+02,-1.903937530000000038e+02,-3.140000000000000000e+02
-1.932124939999999924e+02,-1.903937530000000038e+02,-3.115000000000000000e+02
-1.932124939999999924e+02,-1.896125030000000038e+02,-3.140000000000000000e+02
-1.932124939999999924e+02,-1.896125030000000038e+02,-3.115000000000000000e+02
-1.932124939999999924e+02,-1.888312530000000038e+02,-3.140000000000000000e+02
-1.932124939999999924e+02,-1.892218780000000038e+02,-3.102500000000000000e+02
-1.932124939999999924e+02,-1.888312530000000038e+02,-3.090000000000000000e+02
-1.932124939999999924e+02,-1.880500030000000038e+02,-3.140000000000000000e+02
-1.932124939999999924e+02,-1.884406280000000038e+02,-3.077500000000000000e+02
-1.936031189999999924e+02,-1.880500030000000038e+02,-3.077500000000000000e+02
-1.932124939999999924e+02,-1.880500030000000038e+02,-3.065000000000000000e+02
-1.932124939999999924e+02,-1.872687530000000038e+02,-3.140000000000000000e+02
-1.932124939999999924e+02,-1.872687530000000038e+02,-3.065000000000000000e+02
-1.932124939999999924e+02,-1.864875030000000038e+02,-3.165000000000000000e+02
-1.936031189999999924e+02,-1.864875030000000038e+02,-3.177500000000000000e+02
-1.932124939999999924e+02,-1.868781280000000038e+02,-3.152500000000000000e+02
-1.932124939999999924e+02,-1.868781280000000038e+02,-3.052500000000000000e+02
-1.936031189999999924e+02,-1.864875030000000038e+02,-3.052500000000000000e+02
-1.932124939999999924e+02,-1.864875030000000038e+02,-3.040000000000000000e+02
-1.932124939999999924e+02,-1.857062530000000038e+02,-3.165000000000000000e+02
-1.936031189999999924e+02,-1.857062530000000038e+02,-3.177500000000000000e+02
-1.932124939999999924e+02,-1.857062530000000038e+02,-3.040000000000000000e+02
-1.932124939999999924e+02,-1.849250030000000038e+02,-3.165000000000000000e+02
-1.936031189999999924e+02,-1.849250030000000038e+02,-3.177500000000000000e+02
-1.932124939999999924e+02,-1.849250030000000038e+02,-3.040000000000000000e+02
-1.932124939999999924e+02,-1.841437530000000038e+02,-3.165000000000000000e+02
-1.936031189999999924e+02,-1.841437530000000038e+02,-3.177500000000000000e+02
-1.932124939999999924e+02,-1.841437530000000038e+02,-3.040000000000000000e+02
-1.932124939999999924e+02,-1.833625030000000038e+02,-3.165000000000000000e+02
-1.936031189999999924e+02,-1.833625030000000038e+02,-3.177500000000000000e+02
-1.932124939999999924e+02,-1.833625030000000038e+02,-3.040000000000000000e+02
-1.936031189999999924e+02,-1.825812530000000038e+02,-3.152500000000000000e+02
-1.932124939999999924e+02,-1.829718780000000038e+02,-3.152500000000000000e+02
-1.932124939999999924e+02,-1.825812530000000038e+02,-3.140000000000000000e+02
-1.932124939999999924e+02,-1.825812530000000038e+02,-3.040000000000000000e+02
-1.932124939999999924e+02,-1.818000030000000038e+02,-3.140000000000000000e+02
-1.932124939999999924e+02,-1.818000030000000038e+02,-3.040000000000000000e+02
-1.932124939999999924e+02,-1.810187530000000038e+02,-3.140000000000000000e+02
-1.932124939999999924e+02,-1.814093780000000038e+02,-3.027500000000000000e+02
-1.932124939999999924e+02,-1.814093780000000038e+02,-3.002500000000000000e+02
-1.932124939999999924e+02,-1.810187530000000038e+02,-2.990000000000000000e+02
-1.932124939999999924e+02,-1.802375030000000038e+02,-3.140000000000000000e+02
-1.932124939999999924e+02,-1.802375030000000038e+02,-2.990000000000000000e+02
-1.932124939999999924e+02,-1.794562530000000038e+02,-3.140000000000000000e+02
-1.932124939999999924e+02,-1.794562530000000038e+02,-2.990000000000000000e+02
-1.932124939999999924e+02,-1.786750030000000038e+02,-3.140000000000000000e+02
-1.932124939999999924e+02,-1.790656280000000038e+02,-2.977500000000000000e+02
-1.936031189999999924e+02,-1.786750030000000038e+02,-2.977500000000000000e+02
-1.932124939999999924e+02,-1.778937530000000038e+02,-3.140000000000000000e+02
-1.932124939999999924e+02,-1.782843780000000038e+02,-2.977500000000000000e+02
-1.932124939999999924e+02,-1.778937530000000038e+02,-2.990000000000000000e+02
-1.932124939999999924e+02,-1.771125030000000038e+02,-3.140000000000000000e+02
-1.936031189999999924e+02,-1.771125030000000038e+02,-3.002500000000000000e+02
-1.932124939999999924e+02,-1.771125030000000038e+02,-2.990000000000000000e+02
-1.932124939999999924e+02,-1.763312530000000038e+02,-3.140000000000000000e+02
-1.936031189999999924e+02,-1.763312530000000038e+02,-3.002500000000000000e+02
-1.932124939999999924e+02,-1.763312530000000038e+02,-2.990000000000000000e+02
-1.932124939999999924e+02,-1.755500030000000038e+02,-3.140000000000000000e+02
-1.932124939999999924e+02,-1.759406280000000038e+02,-3.002500000000000000e+02
-1.932124939999999924e+02,-1.755500030000000038e+02,-3.015000000000000000e+02
-1.932124939999999924e+02,-1.747687530000000038e+02,-3.140000000000000000e+02
-1.936031189999999924e+02,-1.747687530000000038e+02,-3.027500000000000000e+02
-1.932124939999999924e+02,-1.747687530000000038e+02,-3.015000000000000000e+02
-1.932124939999999924e+02,-1.739875030000000038e+02,-3.140000000000000000e+02
-1.936031189999999924e+02,-1.739875030000000038e+02,-3.052500000000000000e+02
-1.932124939999999924e+02,-1.739875030000000038e+02,-3.040000000000000000e+02
-1.932124939999999924e+02,-1.743781280000000038e+02,-3.027500000000000000e+02
-1.932124939999999924e+02,-1.732062530000000038e+02,-3.140000000000000000e+02
-1.932124939999999924e+02,-1.735968780000000038e+02,-3.052500000000000000e+02
-1.932124939999999924e+02,-1.732062530000000038e+02,-3.065000000000000000e+02
-1.932124939999999924e+02,-1.724250030000000038e+02,-3.140000000000000000e+02
-1.932124939999999924e+02,-1.724250030000000038e+02,-3.065000000000000000e+02
-1.932124939999999924e+02,-1.716437530000000038e+02,-3.140000000000000000e+02
-1.932124939999999924e+02,-1.716437530000000038e+02,-3.065000000000000000e+02
-1.936031189999999924e+02,-1.708625030000000038e+02,-3.152500000000000000e+02
-1.932124939999999924e+02,-1.708625030000000038e+02,-3.140000000000000000e+02
-1.932124939999999924e+02,-1.712531280000000038e+02,-3.102500000000000000e+02
-1.932124939999999924e+02,-1.708625030000000038e+02,-3.115000000000000000e+02
-1.936031189999999924e+02,-1.708625030000000038e+02,-3.077500000000000000e+02
-1.932124939999999924e+02,-1.708625030000000038e+02,-3.090000000000000000e+02
-1.932124939999999924e+02,-1.708625030000000038e+02,-3.065000000000000000e+02
-1.936031189999999924e+02,-1.700812530000000038e+02,-3.152500000000000000e+02
-1.932124939999999924e+02,-1.700812530000000038e+02,-3.140000000000000000e+02
-1.932124939999999924e+02,-1.700812530000000038e+02,-3.115000000000000000e+02
-1.932124939999999924e+02,-1.704718780000000038e+02,-3.077500000000000000e+02
-1.932124939999999924e+02,-1.693000030000000038e+02,-3.165000000000000000e+02
-1.932124939999999924e+02,-1.696906280000000038e+02,-3.152500000000000000e+02
-1.932124939999999924e+02,-1.693000030000000038e+02,-3.115000000000000000e+02
-1.932124939999999924e+02,-1.685187530000000038e+02,-3.165000000000000000e+02
-1.932124939999999924e+02,-1.685187530000000038e+02,-3.115000000000000000e+02
-1.932124939999999924e+02,-1.677375030000000038e+02,-3.165000000000000000e+02
-1.932124939999999924e+02,-1.677375030000000038e+02,-3.115000000000000000e+02
-1.932124939999999924e+02,-1.669562530000000038e+02,-3.165000000000000000e+02
-1.932124939999999924e+02,-1.669562530000000038e+02,-3.115000000000000000e+02
-1.932124939999999924e+02,-1.661750030000000038e+02,-3.165000000000000000e+02
-1.932124939999999924e+02,-1.661750030000000038e+02,-3.115000000000000000e+02
-1.932124939999999924e+02,-1.653937530000000038e+02,-3.165000000000000000e+02
-1.932124939999999924e+02,-1.653937530000000038e+02,-3.115000000000000000e+02
-1.932124939999999924e+02,-1.650031280000000038e+02,-3.152500000000000000e+02
-1.936031189999999924e+02,-1.646125030000000038e+02,-3.152500000000000000e+02
-1.936031189999999924e+02,-1.646125030000000038e+02,-3.127500000000000000e+02
-1.932124939999999924e+02,-1.650031280000000038e+02,-3.127500000000000000e+02
-1.928218689999999924e+02,-1.911750030000000038e+02,-3.127500000000000000e+02
-1.924312439999999924e+02,-1.903937530000000038e+02,-3.140000000000000000e+02
-1.924312439999999924e+02,-1.907843780000000038e+02,-3.127500000000000000e+02
-1.924312439999999924e+02,-1.903937530000000038e+02,-3.115000000000000000e+02
-1.924312439999999924e+02,-1.896125030000000038e+02,-3.140000000000000000e+02
-1.924312439999999924e+02,-1.896125030000000038e+02,-3.115000000000000000e+02
-1.924312439999999924e+02,-1.888312530000000038e+02,-3.140000000000000000e+02
-1.928218689999999924e+02,-1.888312530000000038e+02,-3.102500000000000000e+02
-1.924312439999999924e+02,-1.888312530000000038e+02,-3.115000000000000000e+02
-1.924312439999999924e+02,-1.880500030000000038e+02,-3.140000000000000000e+02
-1.928218689999999924e+02,-1.880500030000000038e+02,-3.102500000000000000e+02
-1.924312439999999924e+02,-1.880500030000000038e+02,-3.115000000000000000e+02
-1.924312439999999924e+02,-1.884406280000000038e+02,-3.077500000000000000e+02
-1.924312439999999924e+02,-1.880500030000000038e+02,-3.090000000000000000e+02
-1.924312439999999924e+02,-1.880500030000000038e+02,-3.065000000000000000e+02
-1.924312439999999924e+02,-1.872687530000000038e+02,-3.140000000000000000e+02
-1.924312439999999924e+02,-1.876593780000000038e+02,-3.102500000000000000e+02
-1.924312439999999924e+02,-1.872687530000000038e+02,-3.065000000000000000e+02
-1.924312439999999924e+02,-1.864875030000000038e+02,-3.165000000000000000e+02
-1.924312439999999924e+02,-1.868781280000000038e+02,-3.152500000000000000e+02
-1.928218689999999924e+02,-1.864875030000000038e+02,-3.052500000000000000e+02
-1.924312439999999924e+02,-1.864875030000000038e+02,-3.065000000000000000e+02
-1.924312439999999924e+02,-1.857062530000000038e+02,-3.165000000000000000e+02
-1.924312439999999924e+02,-1.860968780000000038e+02,-3.052500000000000000e+02
-1.924312439999999924e+02,-1.857062530000000038e+02,-3.040000000000000000e+02
-1.924312439999999924e+02,-1.849250030000000038e+02,-3.165000000000000000e+02
-1.924312439999999924e+02,-1.849250030000000038e+02,-3.040000000000000000e+02
-1.924312439999999924e+02,-1.841437530000000038e+02,-3.165000000000000000e+02
-1.924312439999999924e+02,-1.841437530000000038e+02,-3.040000000000000000e+02
-1.924312439999999924e+02,-1.837531280000000038e+02,-3.152500000000000000e+02
-1.928218689999999924e+02,-1.833625030000000038e+02,-3.152500000000000000e+02
-1.924312439999999924e+02,-1.833625030000000038e+02,-3.140000000000000000e+02
-1.924312439999999924e+02,-1.833625030000000038e+02,-3.040000000000000000e+02
-1.924312439999999924e+02,-1.825812530000000038e+02,-3.140000000000000000e+02
-1.924312439999999924e+02,-1.825812530000000038e+02,-3.040000000000000000e+02
-1.924312439999999924e+02,-1.818000030000000038e+02,-3.140000000000000000e+02
-1.924312439999999924e+02,-1.818000030000000038e+02,-3.040000000000000000e+02
-1.924312439999999924e+02,-1.810187530000000038e+02,-3.140000000000000000e+02
-1.924312439999999924e+02,-1.814093780000000038e+02,-3.027500000000000000e+02
-1.924312439999999924e+02,-1.814093780000000038e+02,-3.002500000000000000e+02
-1.924312439999999924e+02,-1.810187530000000038e+02,-2.990000000000000000e+02
-1.924312439999999924e+02,-1.802375030000000038e+02,-3.140000000000000000e+02
-1.924312439999999924e+02,-1.806281280000000038e+02,-2.977500000000000000e+02
-1.928218689999999924e+02,-1.802375030000000038e+02,-2.977500000000000000e+02
-1.924312439999999924e+02,-1.794562530000000038e+02,-3.140000000000000000e+02
-1.928218689999999924e+02,-1.794562530000000038e+02,-2.977500000000000000e+02
-1.924312439999999924e+02,-1.786750030000000038e+02,-3.140000000000000000e+02
-1.924312439999999924e+02,-1.778937530000000038e+02,-3.140000000000000000e+02
-1.928218689999999924e+02,-1.778937530000000038e+02,-2.977500000000000000e+02
-1.924312439999999924e+02,-1.771125030000000038e+02,-3.140000000000000000e+02
-1.928218689999999924e+02,-1.771125030000000038e+02,-2.977500000000000000e+02
-1.924312439999999924e+02,-1.763312530000000038e+02,-3.140000000000000000e+02
-1.924312439999999924e+02,-1.767218780000000038e+02,-2.977500000000000000e+02
-1.924312439999999924e+02,-1.763312530000000038e+02,-2.990000000000000000e+02
-1.924312439999999924e+02,-1.755500030000000038e+02,-3.140000000000000000e+02
-1.928218689999999924e+02,-1.755500030000000038e+02,-3.002500000000000000e+02
-1.924312439999999924e+02,-1.755500030000000038e+02,-2.990000000000000000e+02
-1.924312439999999924e+02,-1.747687530000000038e+02,-3.140000000000000000e+02
-1.924312439999999924e+02,-1.751593780000000038e+02,-3.002500000000000000e+02
-1.924312439999999924e+02,-1.747687530000000038e+02,-3.015000000000000000e+02
-1.924312439999999924e+02,-1.739875030000000038e+02,-3.140000000000000000e+02
-1.928218689999999924e+02,-1.739875030000000038e+02,-3.027500000000000000e+02
-1.924312439999999924e+02,-1.739875030000000038e+02,-3.015000000000000000e+02
-1.924312439999999924e+02,-1.732062530000000038e+02,-3.140000000000000000e+02
-1.928218689999999924e+02,-1.732062530000000038e+02,-3.052500000000000000e+02
-1.924312439999999924e+02,-1.732062530000000038e+02,-3.040000000000000000e+02
-1.924312439999999924e+02,-1.735968780000000038e+02,-3.027500000000000000e+02
-1.924312439999999924e+02,-1.724250030000000038e+02,-3.140000000000000000e+02
-1.924312439999999924e+02,-1.728156280000000038e+02,-3.052500000000000000e+02
-1.924312439999999924e+02,-1.724250030000000038e+02,-3.065000000000000000e+02
-1.924312439999999924e+02,-1.716437530000000038e+02,-3.140000000000000000e+02
-1.924312439999999924e+02,-1.716437530000000038e+02,-3.065000000000000000e+02
-1.924312439999999924e+02,-1.708625030000000038e+02,-3.140000000000000000e+02
-1.924312439999999924e+02,-1.712531280000000038e+02,-3.102500000000000000e+02
-1.924312439999999924e+02,-1.708625030000000038e+02,-3.115000000000000000e+02
-1.924312439999999924e+02,-1.708625030000000038e+02,-3.090000000000000000e+02
-1.924312439999999924e+02,-1.708625030000000038e+02,-3.065000000000000000e+02
-1.924312439999999924e+02,-1.700812530000000038e+02,-3.140000000000000000e+02
-1.924312439999999924e+02,-1.700812530000000038e+02,-3.115000000000000000e+02
-1.928218689999999924e+02,-1.700812530000000038e+02,-3.077500000000000000e+02
-1.924312439999999924e+02,-1.700812530000000038e+02,-3.090000000000000000e+02
-1.924312439999999924e+02,-1.700812530000000038e+02,-3.065000000000000000e+02
-1.928218689999999924e+02,-1.693000030000000038e+02,-3.152500000000000000e+02
-1.924312439999999924e+02,-1.693000030000000038e+02,-3.140000000000000000e+02
-1.924312439999999924e+02,-1.693000030000000038e+02,-3.115000000000000000e+02
-1.924312439999999924e+02,-1.696906280000000038e+02,-3.077500000000000000e+02
-1.928218689999999924e+02,-1.685187530000000038e+02,-3.152500000000000000e+02
-1.924312439999999924e+02,-1.685187530000000038e+02,-3.140000000000000000e+02
-1.924312439999999924e+02,-1.685187530000000038e+02,-3.115000000000000000e+02
-1.924312439999999924e+02,-1.677375030000000038e+02,-3.165000000000000000e+02
-1.924312439999999924e+02,-1.681281280000000038e+02,-3.152500000000000000e+02
-1.924312439999999924e+02,-1.677375030000000038e+02,-3.115000000000000000e+02
-1.924312439999999924e+02,-1.669562530000000038e+02,-3.165000000000000000e+02
-1.924312439999999924e+02,-1.669562530000000038e+02,-3.115000000000000000e+02
-1.924312439999999924e+02,-1.661750030000000038e+02,-3.165000000000000000e+02
-1.924312439999999924e+02,-1.661750030000000038e+02,-3.115000000000000000e+02
-1.924312439999999924e+02,-1.657843780000000038e+02,-3.152500000000000000e+02
-1.928218689999999924e+02,-1.653937530000000038e+02,-3.152500000000000000e+02
-1.928218689999999924e+02,-1.653937530000000038e+02,-3.127500000000000000e+02
-1.924312439999999924e+02,-1.657843780000000038e+02,-3.127500000000000000e+02
-1.920406189999999924e+02,-1.903937530000000038e+02,-3.127500000000000000e+02
-1.920406189999999924e+02,-1.896125030000000038e+02,-3.127500000000000000e+02
-1.916499939999999924e+02,-1.888312530000000038e+02,-3.140000000000000000e+02
-1.916499939999999924e+02,-1.892218780000000038e+02,-3.127500000000000000e+02
-1.916499939999999924e+02,-1.888312530000000038e+02,-3.115000000000000000e+02
-1.916499939999999924e+02,-1.880500030000000038e+02,-3.140000000000000000e+02
-1.916499939999999924e+02,-1.880500030000000038e+02,-3.115000000000000000e+02
-1.920406189999999924e+02,-1.880500030000000038e+02,-3.077500000000000000e+02
-1.916499939999999924e+02,-1.872687530000000038e+02,-3.140000000000000000e+02
-1.920406189999999924e+02,-1.872687530000000038e+02,-3.102500000000000000e+02
-1.916499939999999924e+02,-1.872687530000000038e+02,-3.115000000000000000e+02
-1.916499939999999924e+02,-1.872687530000000038e+02,-3.090000000000000000e+02
-1.916499939999999924e+02,-1.876593780000000038e+02,-3.077500000000000000e+02
-1.916499939999999924e+02,-1.872687530000000038e+02,-3.065000000000000000e+02
-1.916499939999999924e+02,-1.864875030000000038e+02,-3.165000000000000000e+02
-1.916499939999999924e+02,-1.868781280000000038e+02,-3.152500000000000000e+02
-1.916499939999999924e+02,-1.868781280000000038e+02,-3.102500000000000000e+02
-1.916499939999999924e+02,-1.864875030000000038e+02,-3.065000000000000000e+02
-1.916499939999999924e+02,-1.857062530000000038e+02,-3.165000000000000000e+02
-1.920406189999999924e+02,-1.857062530000000038e+02,-3.052500000000000000e+02
-1.916499939999999924e+02,-1.857062530000000038e+02,-3.065000000000000000e+02
-1.916499939999999924e+02,-1.849250030000000038e+02,-3.165000000000000000e+02
-1.916499939999999924e+02,-1.853156280000000038e+02,-3.052500000000000000e+02
-1.916499939999999924e+02,-1.849250030000000038e+02,-3.040000000000000000e+02
-1.916499939999999924e+02,-1.845343780000000038e+02,-3.152500000000000000e+02
-1.920406189999999924e+02,-1.841437530000000038e+02,-3.152500000000000000e+02
-1.916499939999999924e+02,-1.841437530000000038e+02,-3.140000000000000000e+02
-1.916499939999999924e+02,-1.841437530000000038e+02,-3.040000000000000000e+02
-1.916499939999999924e+02,-1.833625030000000038e+02,-3.140000000000000000e+02
-1.916499939999999924e+02,-1.833625030000000038e+02,-3.040000000000000000e+02
-1.916499939999999924e+02,-1.825812530000000038e+02,-3.140000000000000000e+02
-1.916499939999999924e+02,-1.825812530000000038e+02,-3.040000000000000000e+02
-1.916499939999999924e+02,-1.818000030000000038e+02,-3.140000000000000000e+02
-1.916499939999999924e+02,-1.818000030000000038e+02,-3.040000000000000000e+02
-1.916499939999999924e+02,-1.810187530000000038e+02,-3.140000000000000000e+02
-1.916499939999999924e+02,-1.814093780000000038e+02,-3.027500000000000000e+02
-1.916499939999999924e+02,-1.814093780000000038e+02,-3.002500000000000000e+02
-1.916499939999999924e+02,-1.810187530000000038e+02,-2.990000000000000000e+02
-1.916499939999999924e+02,-1.806281280000000038e+02,-3.127500000000000000e+02
-1.920406189999999924e+02,-1.802375030000000038e+02,-3.127500000000000000e+02
-1.916499939999999924e+02,-1.802375030000000038e+02,-3.115000000000000000e+02
-1.916499939999999924e+02,-1.806281280000000038e+02,-2.977500000000000000e+02
-1.920406189999999924e+02,-1.794562530000000038e+02,-3.127500000000000000e+02
-1.916499939999999924e+02,-1.794562530000000038e+02,-3.115000000000000000e+02
-1.920406189999999924e+02,-1.786750030000000038e+02,-3.127500000000000000e+02
-1.916499939999999924e+02,-1.786750030000000038e+02,-3.115000000000000000e+02
-1.920406189999999924e+02,-1.778937530000000038e+02,-3.127500000000000000e+02
-1.916499939999999924e+02,-1.778937530000000038e+02,-3.115000000000000000e+02
-1.920406189999999924e+02,-1.771125030000000038e+02,-3.127500000000000000e+02
-1.916499939999999924e+02,-1.771125030000000038e+02,-3.115000000000000000e+02
-1.920406189999999924e+02,-1.763312530000000038e+02,-3.127500000000000000e+02
-1.916499939999999924e+02,-1.763312530000000038e+02,-3.115000000000000000e+02
-1.916499939999999924e+02,-1.767218780000000038e+02,-2.977500000000000000e+02
-1.916499939999999924e+02,-1.763312530000000038e+02,-2.990000000000000000e+02
-1.920406189999999924e+02,-1.755500030000000038e+02,-3.127500000000000000e+02
-1.916499939999999924e+02,-1.755500030000000038e+02,-3.115000000000000000e+02
-1.916499939999999924e+02,-1.755500030000000038e+02,-2.990000000000000000e+02
-1.920406189999999924e+02,-1.747687530000000038e+02,-3.127500000000000000e+02
-1.916499939999999924e+02,-1.747687530000000038e+02,-3.115000000000000000e+02
-1.916499939999999924e+02,-1.751593780000000038e+02,-3.002500000000000000e+02
-1.916499939999999924e+02,-1.747687530000000038e+02,-3.015000000000000000e+02
-1.920406189999999924e+02,-1.739875030000000038e+02,-3.127500000000000000e+02
-1.916499939999999924e+02,-1.739875030000000038e+02,-3.115000000000000000e+02
-1.916499939999999924e+02,-1.739875030000000038e+02,-3.015000000000000000e+02
-1.920406189999999924e+02,-1.732062530000000038e+02,-3.127500000000000000e+02
-1.916499939999999924e+02,-1.735968780000000038e+02,-3.102500000000000000e+02
-1.920406189999999924e+02,-1.732062530000000038e+02,-3.102500000000000000e+02
-1.916499939999999924e+02,-1.732062530000000038e+02,-3.090000000000000000e+02
-1.920406189999999924e+02,-1.732062530000000038e+02,-3.052500000000000000e+02
-1.916499939999999924e+02,-1.735968780000000038e+02,-3.052500000000000000e+02
-1.916499939999999924e+02,-1.732062530000000038e+02,-3.065000000000000000e+02
-1.916499939999999924e+02,-1.735968780000000038e+02,-3.027500000000000000e+02
-1.920406189999999924e+02,-1.724250030000000038e+02,-3.127500000000000000e+02
-1.920406189999999924e+02,-1.724250030000000038e+02,-3.102500000000000000e+02
-1.916499939999999924e+02,-1.724250030000000038e+02,-3.090000000000000000e+02
-1.916499939999999924e+02,-1.724250030000000038e+02,-3.065000000000000000e+02
-1.920406189999999924e+02,-1.716437530000000038e+02,-3.127500000000000000e+02
-1.920406189999999924e+02,-1.716437530000000038e+02,-3.102500000000000000e+02
-1.916499939999999924e+02,-1.716437530000000038e+02,-3.090000000000000000e+02
-1.916499939999999924e+02,-1.716437530000000038e+02,-3.065000000000000000e+02
-1.916499939999999924e+02,-1.708625030000000038e+02,-3.140000000000000000e+02
-1.916499939999999924e+02,-1.712531280000000038e+02,-3.127500000000000000e+02
-1.916499939999999924e+02,-1.708625030000000038e+02,-3.115000000000000000e+02
-1.916499939999999924e+02,-1.708625030000000038e+02,-3.090000000000000000e+02
-1.916499939999999924e+02,-1.708625030000000038e+02,-3.065000000000000000e+02
-1.916499939999999924e+02,-1.700812530000000038e+02,-3.140000000000000000e+02
-1.916499939999999924e+02,-1.700812530000000038e+02,-3.115000000000000000e+02
-1.916499939999999924e+02,-1.700812530000000038e+02,-3.090000000000000000e+02
-1.916499939999999924e+02,-1.700812530000000038e+02,-3.065000000000000000e+02
-1.916499939999999924e+02,-1.693000030000000038e+02,-3.140000000000000000e+02
-1.916499939999999924e+02,-1.693000030000000038e+02,-3.115000000000000000e+02
-1.920406189999999924e+02,-1.693000030000000038e+02,-3.077500000000000000e+02
-1.916499939999999924e+02,-1.693000030000000038e+02,-3.090000000000000000e+02
-1.916499939999999924e+02,-1.693000030000000038e+02,-3.065000000000000000e+02
-1.916499939999999924e+02,-1.685187530000000038e+02,-3.140000000000000000e+02
-1.916499939999999924e+02,-1.685187530000000038e+02,-3.115000000000000000e+02
-1.916499939999999924e+02,-1.689093780000000038e+02,-3.077500000000000000e+02
-1.920406189999999924e+02,-1.677375030000000038e+02,-3.152500000000000000e+02
-1.916499939999999924e+02,-1.677375030000000038e+02,-3.140000000000000000e+02
-1.916499939999999924e+02,-1.677375030000000038e+02,-3.115000000000000000e+02
-1.920406189999999924e+02,-1.669562530000000038e+02,-3.152500000000000000e+02
-1.916499939999999924e+02,-1.669562530000000038e+02,-3.140000000000000000e+02
-1.916499939999999924e+02,-1.669562530000000038e+02,-3.115000000000000000e+02
-1.920406189999999924e+02,-1.661750030000000038e+02,-3.152500000000000000e+02
-1.916499939999999924e+02,-1.665656280000000038e+02,-3.127500000000000000e+02
-1.920406189999999924e+02,-1.661750030000000038e+02,-3.127500000000000000e+02
-1.912593689999999924e+02,-1.888312530000000038e+02,-3.127500000000000000e+02
-1.908687439999999924e+02,-1.880500030000000038e+02,-3.140000000000000000e+02
-1.908687439999999924e+02,-1.884406280000000038e+02,-3.127500000000000000e+02
-1.908687439999999924e+02,-1.880500030000000038e+02,-3.115000000000000000e+02
-1.908687439999999924e+02,-1.872687530000000038e+02,-3.140000000000000000e+02
-1.908687439999999924e+02,-1.872687530000000038e+02,-3.115000000000000000e+02
-1.912593689999999924e+02,-1.872687530000000038e+02,-3.077500000000000000e+02
-1.912593689999999924e+02,-1.864875030000000038e+02,-3.152500000000000000e+02
