-1.900625000000000000e+02,-4.376562500000000000e+01,-6.788000489999999445e+02
-1.900625000000000000e+02,-4.376562500000000000e+01,-6.768000489999999445e+02
-1.900625000000000000e+02,-4.376562500000000000e+01,-6.748000489999999445e+02
-1.900625000000000000e+02,-4.337500000000000000e+01,-6.743000489999999445e+02
-1.904531250000000000e+02,-4.337500000000000000e+01,-6.728000489999999445e+02
-1.900625000000000000e+02,-4.337500000000000000e+01,-6.723000489999999445e+02
-1.900625000000000000e+02,-4.376562500000000000e+01,-6.718000489999999445e+02
-1.900625000000000000e+02,-4.376562500000000000e+01,-6.688000489999999445e+02
-1.900625000000000000e+02,-4.298437500000000000e+01,-6.738000489999999445e+02
-1.900625000000000000e+02,-4.298437500000000000e+01,-6.728000489999999445e+02
-1.896718750000000000e+02,-5.509375000000000000e+01,-6.768000489999999445e+02
-1.892812500000000000e+02,-5.509375000000000000e+01,-6.763000489999999445e+02
-1.892812500000000000e+02,-5.548437500000000000e+01,-6.758000489999999445e+02
-1.892812500000000000e+02,-5.548437500000000000e+01,-6.748000489999999445e+02
-1.892812500000000000e+02,-5.548437500000000000e+01,-6.738000489999999445e+02
-1.896718750000000000e+02,-5.509375000000000000e+01,-6.728000489999999445e+02
-1.892812500000000000e+02,-5.509375000000000000e+01,-6.733000489999999445e+02
-1.896718750000000000e+02,-5.509375000000000000e+01,-6.718000489999999445e+02
-1.892812500000000000e+02,-5.509375000000000000e+01,-6.713000489999999445e+02
-1.892812500000000000e+02,-5.548437500000000000e+01,-6.708000489999999445e+02
-1.896718750000000000e+02,-5.509375000000000000e+01,-6.698000489999999445e+02
-1.892812500000000000e+02,-5.509375000000000000e+01,-6.703000489999999445e+02
-1.892812500000000000e+02,-5.431250000000000000e+01,-6.773000489999999445e+02
-1.892812500000000000e+02,-5.470312500000000000e+01,-6.768000489999999445e+02
-1.892812500000000000e+02,-5.470312500000000000e+01,-6.728000489999999445e+02
-1.892812500000000000e+02,-5.470312500000000000e+01,-6.718000489999999445e+02
-1.892812500000000000e+02,-5.470312500000000000e+01,-6.698000489999999445e+02
-1.896718750000000000e+02,-5.431250000000000000e+01,-6.688000489999999445e+02
-1.892812500000000000e+02,-5.431250000000000000e+01,-6.693000489999999445e+02
-1.896718750000000000e+02,-5.353125000000000000e+01,-6.778000489999999445e+02
-1.892812500000000000e+02,-5.353125000000000000e+01,-6.773000489999999445e+02
-1.892812500000000000e+02,-5.392187500000000000e+01,-6.688000489999999445e+02
-1.892812500000000000e+02,-5.392187500000000000e+01,-6.678000489999999445e+02
-1.892812500000000000e+02,-5.392187500000000000e+01,-6.668000489999999445e+02
-1.892812500000000000e+02,-5.392187500000000000e+01,-6.658000489999999445e+02
-1.896718750000000000e+02,-5.353125000000000000e+01,-6.648000489999999445e+02
-1.892812500000000000e+02,-5.353125000000000000e+01,-6.653000489999999445e+02
-1.896718750000000000e+02,-5.275000000000000000e+01,-6.778000489999999445e+02
-1.892812500000000000e+02,-5.275000000000000000e+01,-6.773000489999999445e+02
-1.892812500000000000e+02,-5.314062500000000000e+01,-6.648000489999999445e+02
-1.892812500000000000e+02,-5.275000000000000000e+01,-6.643000489999999445e+02
-1.892812500000000000e+02,-5.196875000000000000e+01,-6.783000489999999445e+02
-1.892812500000000000e+02,-5.235937500000000000e+01,-6.778000489999999445e+02
-1.896718750000000000e+02,-5.196875000000000000e+01,-6.638000489999999445e+02
-1.892812500000000000e+02,-5.196875000000000000e+01,-6.643000489999999445e+02
-1.892812500000000000e+02,-5.118750000000000000e+01,-6.783000489999999445e+02
-1.892812500000000000e+02,-5.157812500000000000e+01,-6.638000489999999445e+02
-1.892812500000000000e+02,-5.118750000000000000e+01,-6.633000489999999445e+02
-1.896718750000000000e+02,-5.040625000000000000e+01,-6.788000489999999445e+02
-1.892812500000000000e+02,-5.040625000000000000e+01,-6.783000489999999445e+02
-1.892812500000000000e+02,-5.040625000000000000e+01,-6.633000489999999445e+02
-1.896718750000000000e+02,-4.962500000000000000e+01,-6.798000489999999445e+02
-1.892812500000000000e+02,-4.962500000000000000e+01,-6.793000489999999445e+02
-1.892812500000000000e+02,-5.001562500000000000e+01,-6.788000489999999445e+02
-1.896718750000000000e+02,-4.962500000000000000e+01,-6.638000489999999445e+02
-1.892812500000000000e+02,-5.001562500000000000e+01,-6.638000489999999445e+02
-1.892812500000000000e+02,-4.962500000000000000e+01,-6.643000489999999445e+02
-1.892812500000000000e+02,-4.923437500000000000e+01,-6.798000489999999445e+02
-1.896718750000000000e+02,-4.884375000000000000e+01,-6.638000489999999445e+02
-1.892812500000000000e+02,-4.884375000000000000e+01,-6.643000489999999445e+02
-1.892812500000000000e+02,-4.806250000000000000e+01,-6.643000489999999445e+02
-1.892812500000000000e+02,-4.767187500000000000e+01,-6.658000489999999445e+02
-1.892812500000000000e+02,-4.728125000000000000e+01,-6.663000489999999445e+02
-1.896718750000000000e+02,-4.728125000000000000e+01,-6.648000489999999445e+02
-1.892812500000000000e+02,-4.767187500000000000e+01,-6.648000489999999445e+02
-1.892812500000000000e+02,-4.650000000000000000e+01,-6.663000489999999445e+02
-1.892812500000000000e+02,-4.571875000000000000e+01,-6.663000489999999445e+02
-1.896718750000000000e+02,-4.493750000000000000e+01,-6.758000489999999445e+02
-1.892812500000000000e+02,-4.532812500000000000e+01,-6.668000489999999445e+02
-1.892812500000000000e+02,-4.493750000000000000e+01,-6.673000489999999445e+02
-1.892812500000000000e+02,-4.454687500000000000e+01,-6.778000489999999445e+02
-1.892812500000000000e+02,-4.415625000000000000e+01,-6.783000489999999445e+02
-1.896718750000000000e+02,-4.415625000000000000e+01,-6.768000489999999445e+02
-1.892812500000000000e+02,-4.454687500000000000e+01,-6.768000489999999445e+02
-1.892812500000000000e+02,-4.454687500000000000e+01,-6.758000489999999445e+02
-1.892812500000000000e+02,-4.415625000000000000e+01,-6.753000489999999445e+02
-1.892812500000000000e+02,-4.454687500000000000e+01,-6.708000489999999445e+02
-1.892812500000000000e+02,-4.415625000000000000e+01,-6.713000489999999445e+02
-1.892812500000000000e+02,-4.454687500000000000e+01,-6.698000489999999445e+02
-1.896718750000000000e+02,-4.415625000000000000e+01,-6.688000489999999445e+02
-1.892812500000000000e+02,-4.454687500000000000e+01,-6.688000489999999445e+02
-1.892812500000000000e+02,-4.454687500000000000e+01,-6.678000489999999445e+02
-1.892812500000000000e+02,-4.376562500000000000e+01,-6.788000489999999445e+02
-1.892812500000000000e+02,-4.376562500000000000e+01,-6.798000489999999445e+02
-1.892812500000000000e+02,-4.376562500000000000e+01,-6.748000489999999445e+02
-1.892812500000000000e+02,-4.337500000000000000e+01,-6.743000489999999445e+02
-1.892812500000000000e+02,-4.376562500000000000e+01,-6.718000489999999445e+02
-1.892812500000000000e+02,-4.337500000000000000e+01,-6.723000489999999445e+02
-1.892812500000000000e+02,-4.298437500000000000e+01,-6.738000489999999445e+02
-1.892812500000000000e+02,-4.298437500000000000e+01,-6.728000489999999445e+02
-1.888906250000000000e+02,-5.509375000000000000e+01,-6.758000489999999445e+02
-1.885000000000000000e+02,-5.509375000000000000e+01,-6.753000489999999445e+02
-1.885000000000000000e+02,-5.548437500000000000e+01,-6.748000489999999445e+02
-1.888906250000000000e+02,-5.509375000000000000e+01,-6.738000489999999445e+02
-1.885000000000000000e+02,-5.509375000000000000e+01,-6.743000489999999445e+02
-1.888906250000000000e+02,-5.509375000000000000e+01,-6.708000489999999445e+02
-1.888906250000000000e+02,-5.431250000000000000e+01,-6.768000489999999445e+02
-1.885000000000000000e+02,-5.431250000000000000e+01,-6.763000489999999445e+02
-1.885000000000000000e+02,-5.470312500000000000e+01,-6.758000489999999445e+02
-1.885000000000000000e+02,-5.470312500000000000e+01,-6.738000489999999445e+02
-1.885000000000000000e+02,-5.470312500000000000e+01,-6.728000489999999445e+02
-1.888906250000000000e+02,-5.431250000000000000e+01,-6.718000489999999445e+02
-1.885000000000000000e+02,-5.431250000000000000e+01,-6.723000489999999445e+02
-1.885000000000000000e+02,-5.431250000000000000e+01,-6.713000489999999445e+02
-1.885000000000000000e+02,-5.470312500000000000e+01,-6.708000489999999445e+02
-1.885000000000000000e+02,-5.470312500000000000e+01,-6.698000489999999445e+02
-1.885000000000000000e+02,-5.431250000000000000e+01,-6.693000489999999445e+02
-1.885000000000000000e+02,-5.353125000000000000e+01,-6.773000489999999445e+02
-1.885000000000000000e+02,-5.392187500000000000e+01,-6.768000489999999445e+02
-1.885000000000000000e+02,-5.392187500000000000e+01,-6.718000489999999445e+02
-1.885000000000000000e+02,-5.392187500000000000e+01,-6.688000489999999445e+02
-1.888906250000000000e+02,-5.353125000000000000e+01,-6.678000489999999445e+02
-1.885000000000000000e+02,-5.353125000000000000e+01,-6.683000489999999445e+02
-1.888906250000000000e+02,-5.353125000000000000e+01,-6.668000489999999445e+02
-1.888906250000000000e+02,-5.353125000000000000e+01,-6.658000489999999445e+02
-1.885000000000000000e+02,-5.275000000000000000e+01,-6.773000489999999445e+02
-1.885000000000000000e+02,-5.314062500000000000e+01,-6.678000489999999445e+02
-1.885000000000000000e+02,-5.314062500000000000e+01,-6.668000489999999445e+02
-1.885000000000000000e+02,-5.314062500000000000e+01,-6.658000489999999445e+02
-1.885000000000000000e+02,-5.314062500000000000e+01,-6.648000489999999445e+02
-1.885000000000000000e+02,-5.275000000000000000e+01,-6.643000489999999445e+02
-1.888906250000000000e+02,-5.196875000000000000e+01,-6.778000489999999445e+02
-1.885000000000000000e+02,-5.196875000000000000e+01,-6.773000489999999445e+02
-1.885000000000000000e+02,-5.196875000000000000e+01,-6.643000489999999445e+02
-1.885000000000000000e+02,-5.118750000000000000e+01,-6.783000489999999445e+02
-1.885000000000000000e+02,-5.157812500000000000e+01,-6.778000489999999445e+02
-1.885000000000000000e+02,-5.157812500000000000e+01,-6.638000489999999445e+02
-1.885000000000000000e+02,-5.118750000000000000e+01,-6.633000489999999445e+02
-1.885000000000000000e+02,-5.040625000000000000e+01,-6.783000489999999445e+02
-1.888906250000000000e+02,-5.040625000000000000e+01,-6.638000489999999445e+02
-1.885000000000000000e+02,-5.079687500000000000e+01,-6.638000489999999445e+02
-1.885000000000000000e+02,-5.040625000000000000e+01,-6.643000489999999445e+02
-1.888906250000000000e+02,-4.962500000000000000e+01,-6.788000489999999445e+02
-1.885000000000000000e+02,-4.962500000000000000e+01,-6.783000489999999445e+02
-1.885000000000000000e+02,-4.962500000000000000e+01,-6.643000489999999445e+02
-1.888906250000000000e+02,-4.884375000000000000e+01,-6.798000489999999445e+02
-1.885000000000000000e+02,-4.884375000000000000e+01,-6.793000489999999445e+02
-1.885000000000000000e+02,-4.923437500000000000e+01,-6.788000489999999445e+02
-1.888906250000000000e+02,-4.884375000000000000e+01,-6.658000489999999445e+02
-1.885000000000000000e+02,-4.923437500000000000e+01,-6.658000489999999445e+02
-1.885000000000000000e+02,-4.884375000000000000e+01,-6.663000489999999445e+02
-1.885000000000000000e+02,-4.884375000000000000e+01,-6.653000489999999445e+02
-1.885000000000000000e+02,-4.884375000000000000e+01,-6.643000489999999445e+02
-1.885000000000000000e+02,-4.845312500000000000e+01,-6.798000489999999445e+02
-1.888906250000000000e+02,-4.806250000000000000e+01,-6.658000489999999445e+02
-1.885000000000000000e+02,-4.806250000000000000e+01,-6.663000489999999445e+02
-1.885000000000000000e+02,-4.806250000000000000e+01,-6.653000489999999445e+02
-1.885000000000000000e+02,-4.806250000000000000e+01,-6.643000489999999445e+02
-1.885000000000000000e+02,-4.728125000000000000e+01,-6.663000489999999445e+02
-1.885000000000000000e+02,-4.767187500000000000e+01,-6.648000489999999445e+02
-1.885000000000000000e+02,-4.650000000000000000e+01,-6.663000489999999445e+02
-1.885000000000000000e+02,-4.571875000000000000e+01,-6.663000489999999445e+02
-1.888906250000000000e+02,-4.493750000000000000e+01,-6.758000489999999445e+02
-1.885000000000000000e+02,-4.532812500000000000e+01,-6.758000489999999445e+02
-1.885000000000000000e+02,-4.493750000000000000e+01,-6.763000489999999445e+02
-1.885000000000000000e+02,-4.493750000000000000e+01,-6.753000489999999445e+02
-1.885000000000000000e+02,-4.532812500000000000e+01,-6.668000489999999445e+02
-1.885000000000000000e+02,-4.493750000000000000e+01,-6.673000489999999445e+02
-1.885000000000000000e+02,-4.454687500000000000e+01,-6.798000489999999445e+02
-1.888906250000000000e+02,-4.415625000000000000e+01,-6.798000489999999445e+02
-1.885000000000000000e+02,-4.415625000000000000e+01,-6.793000489999999445e+02
-1.885000000000000000e+02,-4.454687500000000000e+01,-6.778000489999999445e+02
-1.885000000000000000e+02,-4.415625000000000000e+01,-6.783000489999999445e+02
-1.885000000000000000e+02,-4.454687500000000000e+01,-6.768000489999999445e+02
-1.885000000000000000e+02,-4.415625000000000000e+01,-6.753000489999999445e+02
-1.885000000000000000e+02,-4.454687500000000000e+01,-6.708000489999999445e+02
-1.885000000000000000e+02,-4.415625000000000000e+01,-6.713000489999999445e+02
-1.885000000000000000e+02,-4.454687500000000000e+01,-6.698000489999999445e+02
-1.885000000000000000e+02,-4.454687500000000000e+01,-6.688000489999999445e+02
-1.885000000000000000e+02,-4.454687500000000000e+01,-6.678000489999999445e+02
-1.885000000000000000e+02,-4.376562500000000000e+01,-6.788000489999999445e+02
-1.885000000000000000e+02,-4.376562500000000000e+01,-6.748000489999999445e+02
-1.885000000000000000e+02,-4.337500000000000000e+01,-6.743000489999999445e+02
-1.885000000000000000e+02,-4.376562500000000000e+01,-6.718000489999999445e+02
-1.885000000000000000e+02,-4.337500000000000000e+01,-6.723000489999999445e+02
-1.885000000000000000e+02,-4.298437500000000000e+01,-6.738000489999999445e+02
-1.885000000000000000e+02,-4.298437500000000000e+01,-6.728000489999999445e+02
-1.881093750000000000e+02,-5.509375000000000000e+01,-6.748000489999999445e+02
-1.877187500000000000e+02,-5.431250000000000000e+01,-6.763000489999999445e+02
-1.877187500000000000e+02,-5.470312500000000000e+01,-6.758000489999999445e+02
-1.877187500000000000e+02,-5.470312500000000000e+01,-6.748000489999999445e+02
-1.877187500000000000e+02,-5.470312500000000000e+01,-6.738000489999999445e+02
-1.877187500000000000e+02,-5.470312500000000000e+01,-6.728000489999999445e+02
-1.877187500000000000e+02,-5.431250000000000000e+01,-6.723000489999999445e+02
-1.881093750000000000e+02,-5.431250000000000000e+01,-6.708000489999999445e+02
-1.881093750000000000e+02,-5.431250000000000000e+01,-6.698000489999999445e+02
-1.881093750000000000e+02,-5.353125000000000000e+01,-6.768000489999999445e+02
-1.877187500000000000e+02,-5.353125000000000000e+01,-6.763000489999999445e+02
-1.877187500000000000e+02,-5.392187500000000000e+01,-6.718000489999999445e+02
-1.877187500000000000e+02,-5.392187500000000000e+01,-6.708000489999999445e+02
-1.877187500000000000e+02,-5.392187500000000000e+01,-6.698000489999999445e+02
-1.881093750000000000e+02,-5.353125000000000000e+01,-6.688000489999999445e+02
-1.877187500000000000e+02,-5.353125000000000000e+01,-6.693000489999999445e+02
-1.877187500000000000e+02,-5.275000000000000000e+01,-6.773000489999999445e+02
-1.877187500000000000e+02,-5.314062500000000000e+01,-6.768000489999999445e+02
-1.877187500000000000e+02,-5.314062500000000000e+01,-6.688000489999999445e+02
-1.881093750000000000e+02,-5.275000000000000000e+01,-6.678000489999999445e+02
-1.877187500000000000e+02,-5.275000000000000000e+01,-6.683000489999999445e+02
-1.881093750000000000e+02,-5.275000000000000000e+01,-6.668000489999999445e+02
-1.881093750000000000e+02,-5.275000000000000000e+01,-6.658000489999999445e+02
-1.881093750000000000e+02,-5.275000000000000000e+01,-6.648000489999999445e+02
-1.877187500000000000e+02,-5.196875000000000000e+01,-6.773000489999999445e+02
-1.877187500000000000e+02,-5.235937500000000000e+01,-6.678000489999999445e+02
-1.877187500000000000e+02,-5.235937500000000000e+01,-6.668000489999999445e+02
-1.877187500000000000e+02,-5.235937500000000000e+01,-6.658000489999999445e+02
-1.877187500000000000e+02,-5.235937500000000000e+01,-6.648000489999999445e+02
-1.877187500000000000e+02,-5.196875000000000000e+01,-6.643000489999999445e+02
-1.881093750000000000e+02,-5.118750000000000000e+01,-6.778000489999999445e+02
-1.877187500000000000e+02,-5.118750000000000000e+01,-6.773000489999999445e+02
-1.881093750000000000e+02,-5.118750000000000000e+01,-6.638000489999999445e+02
-1.877187500000000000e+02,-5.118750000000000000e+01,-6.643000489999999445e+02
-1.881093750000000000e+02,-5.040625000000000000e+01,-6.778000489999999445e+02
-1.877187500000000000e+02,-5.040625000000000000e+01,-6.773000489999999445e+02
-1.877187500000000000e+02,-5.040625000000000000e+01,-6.643000489999999445e+02
-1.881093750000000000e+02,-4.962500000000000000e+01,-6.778000489999999445e+02
-1.877187500000000000e+02,-4.962500000000000000e+01,-6.773000489999999445e+02
-1.881093750000000000e+02,-4.962500000000000000e+01,-6.658000489999999445e+02
-1.877187500000000000e+02,-5.001562500000000000e+01,-6.658000489999999445e+02
-1.877187500000000000e+02,-4.962500000000000000e+01,-6.663000489999999445e+02
-1.881093750000000000e+02,-4.962500000000000000e+01,-6.648000489999999445e+02
-1.877187500000000000e+02,-5.001562500000000000e+01,-6.648000489999999445e+02
-1.881093750000000000e+02,-4.884375000000000000e+01,-6.788000489999999445e+02
-1.877187500000000000e+02,-4.884375000000000000e+01,-6.783000489999999445e+02
-1.877187500000000000e+02,-4.923437500000000000e+01,-6.778000489999999445e+02
-1.877187500000000000e+02,-4.884375000000000000e+01,-6.663000489999999445e+02
-1.881093750000000000e+02,-4.884375000000000000e+01,-6.648000489999999445e+02
-1.881093750000000000e+02,-4.806250000000000000e+01,-6.798000489999999445e+02
-1.877187500000000000e+02,-4.806250000000000000e+01,-6.793000489999999445e+02
-1.877187500000000000e+02,-4.845312500000000000e+01,-6.788000489999999445e+02
-1.877187500000000000e+02,-4.806250000000000000e+01,-6.663000489999999445e+02
-1.881093750000000000e+02,-4.806250000000000000e+01,-6.648000489999999445e+02
-1.877187500000000000e+02,-4.767187500000000000e+01,-6.798000489999999445e+02
-1.877187500000000000e+02,-4.728125000000000000e+01,-6.663000489999999445e+02
-1.877187500000000000e+02,-4.650000000000000000e+01,-6.663000489999999445e+02
-1.877187500000000000e+02,-4.610937500000000000e+01,-6.798000489999999445e+02
-1.881093750000000000e+02,-4.571875000000000000e+01,-6.798000489999999445e+02
-1.877187500000000000e+02,-4.571875000000000000e+01,-6.793000489999999445e+02
-1.877187500000000000e+02,-4.571875000000000000e+01,-6.663000489999999445e+02
-1.877187500000000000e+02,-4.493750000000000000e+01,-6.793000489999999445e+02
-1.881093750000000000e+02,-4.493750000000000000e+01,-6.798000489999999445e+02
-1.877187500000000000e+02,-4.532812500000000000e+01,-6.758000489999999445e+02
-1.877187500000000000e+02,-4.493750000000000000e+01,-6.763000489999999445e+02
-1.877187500000000000e+02,-4.493750000000000000e+01,-6.753000489999999445e+02
-1.881093750000000000e+02,-4.493750000000000000e+01,-6.688000489999999445e+02
-1.877187500000000000e+02,-4.532812500000000000e+01,-6.688000489999999445e+02
-1.877187500000000000e+02,-4.493750000000000000e+01,-6.693000489999999445e+02
-1.877187500000000000e+02,-4.493750000000000000e+01,-6.683000489999999445e+02
-1.877187500000000000e+02,-4.532812500000000000e+01,-6.668000489999999445e+02
-1.877187500000000000e+02,-4.493750000000000000e+01,-6.673000489999999445e+02
-1.881093750000000000e+02,-4.415625000000000000e+01,-6.788000489999999445e+02
-1.877187500000000000e+02,-4.454687500000000000e+01,-6.788000489999999445e+02
-1.877187500000000000e+02,-4.454687500000000000e+01,-6.778000489999999445e+02
-1.877187500000000000e+02,-4.454687500000000000e+01,-6.768000489999999445e+02
-1.877187500000000000e+02,-4.415625000000000000e+01,-6.753000489999999445e+02
-1.877187500000000000e+02,-4.454687500000000000e+01,-6.708000489999999445e+02
-1.877187500000000000e+02,-4.415625000000000000e+01,-6.713000489999999445e+02
-1.877187500000000000e+02,-4.454687500000000000e+01,-6.698000489999999445e+02
-1.877187500000000000e+02,-4.454687500000000000e+01,-6.678000489999999445e+02
-1.877187500000000000e+02,-4.376562500000000000e+01,-6.748000489999999445e+02
-1.877187500000000000e+02,-4.337500000000000000e+01,-6.743000489999999445e+02
-1.881093750000000000e+02,-4.337500000000000000e+01,-6.718000489999999445e+02
-1.877187500000000000e+02,-4.337500000000000000e+01,-6.713000489999999445e+02
-1.877187500000000000e+02,-4.298437500000000000e+01,-6.738000489999999445e+02
-1.877187500000000000e+02,-4.298437500000000000e+01,-6.728000489999999445e+02
-1.877187500000000000e+02,-4.298437500000000000e+01,-6.718000489999999445e+02
-1.873281250000000000e+02,-5.431250000000000000e+01,-6.758000489999999445e+02
-1.869375000000000000e+02,-5.431250000000000000e+01,-6.753000489999999445e+02
-1.869375000000000000e+02,-5.470312500000000000e+01,-6.748000489999999445e+02
-1.873281250000000000e+02,-5.431250000000000000e+01,-6.738000489999999445e+02
-1.869375000000000000e+02,-5.431250000000000000e+01,-6.743000489999999445e+02
-1.873281250000000000e+02,-5.431250000000000000e+01,-6.728000489999999445e+02
-1.869375000000000000e+02,-5.353125000000000000e+01,-6.763000489999999445e+02
-1.869375000000000000e+02,-5.392187500000000000e+01,-6.758000489999999445e+02
-1.869375000000000000e+02,-5.392187500000000000e+01,-6.738000489999999445e+02
-1.869375000000000000e+02,-5.392187500000000000e+01,-6.728000489999999445e+02
-1.873281250000000000e+02,-5.353125000000000000e+01,-6.718000489999999445e+02
-1.869375000000000000e+02,-5.353125000000000000e+01,-6.723000489999999445e+02
-1.873281250000000000e+02,-5.353125000000000000e+01,-6.708000489999999445e+02
-1.873281250000000000e+02,-5.353125000000000000e+01,-6.698000489999999445e+02
-1.873281250000000000e+02,-5.275000000000000000e+01,-6.768000489999999445e+02
-1.869375000000000000e+02,-5.275000000000000000e+01,-6.763000489999999445e+02
-1.869375000000000000e+02,-5.314062500000000000e+01,-6.718000489999999445e+02
-1.869375000000000000e+02,-5.275000000000000000e+01,-6.713000489999999445e+02
-1.873281250000000000e+02,-5.275000000000000000e+01,-6.708000489999999445e+02
-1.869375000000000000e+02,-5.275000000000000000e+01,-6.703000489999999445e+02
-1.869375000000000000e+02,-5.314062500000000000e+01,-6.698000489999999445e+02
-1.873281250000000000e+02,-5.275000000000000000e+01,-6.688000489999999445e+02
-1.869375000000000000e+02,-5.275000000000000000e+01,-6.693000489999999445e+02
-1.873281250000000000e+02,-5.196875000000000000e+01,-6.768000489999999445e+02
-1.869375000000000000e+02,-5.196875000000000000e+01,-6.763000489999999445e+02
-1.869375000000000000e+02,-5.235937500000000000e+01,-6.708000489999999445e+02
-1.869375000000000000e+02,-5.235937500000000000e+01,-6.688000489999999445e+02
-1.873281250000000000e+02,-5.196875000000000000e+01,-6.678000489999999445e+02
-1.869375000000000000e+02,-5.196875000000000000e+01,-6.683000489999999445e+02
-1.873281250000000000e+02,-5.196875000000000000e+01,-6.668000489999999445e+02
-1.873281250000000000e+02,-5.196875000000000000e+01,-6.658000489999999445e+02
-1.873281250000000000e+02,-5.196875000000000000e+01,-6.648000489999999445e+02
-1.869375000000000000e+02,-5.118750000000000000e+01,-6.773000489999999445e+02
-1.869375000000000000e+02,-5.157812500000000000e+01,-6.768000489999999445e+02
-1.869375000000000000e+02,-5.157812500000000000e+01,-6.678000489999999445e+02
-1.869375000000000000e+02,-5.157812500000000000e+01,-6.668000489999999445e+02
-1.869375000000000000e+02,-5.118750000000000000e+01,-6.663000489999999445e+02
-1.873281250000000000e+02,-5.118750000000000000e+01,-6.658000489999999445e+02
-1.869375000000000000e+02,-5.118750000000000000e+01,-6.653000489999999445e+02
-1.869375000000000000e+02,-5.157812500000000000e+01,-6.648000489999999445e+02
-1.869375000000000000e+02,-5.118750000000000000e+01,-6.643000489999999445e+02
-1.869375000000000000e+02,-5.040625000000000000e+01,-6.773000489999999445e+02
-1.873281250000000000e+02,-5.040625000000000000e+01,-6.658000489999999445e+02
-1.869375000000000000e+02,-5.040625000000000000e+01,-6.663000489999999445e+02
-1.869375000000000000e+02,-5.079687500000000000e+01,-6.648000489999999445e+02
-1.873281250000000000e+02,-5.040625000000000000e+01,-6.648000489999999445e+02
-1.869375000000000000e+02,-4.962500000000000000e+01,-6.773000489999999445e+02
-1.869375000000000000e+02,-4.962500000000000000e+01,-6.663000489999999445e+02
-1.873281250000000000e+02,-4.884375000000000000e+01,-6.778000489999999445e+02
-1.869375000000000000e+02,-4.884375000000000000e+01,-6.773000489999999445e+02
-1.869375000000000000e+02,-4.884375000000000000e+01,-6.663000489999999445e+02
-1.869375000000000000e+02,-4.806250000000000000e+01,-6.793000489999999445e+02
-1.869375000000000000e+02,-4.845312500000000000e+01,-6.788000489999999445e+02
-1.869375000000000000e+02,-4.845312500000000000e+01,-6.778000489999999445e+02
-1.869375000000000000e+02,-4.806250000000000000e+01,-6.663000489999999445e+02
-1.873281250000000000e+02,-4.728125000000000000e+01,-6.798000489999999445e+02
-1.869375000000000000e+02,-4.728125000000000000e+01,-6.793000489999999445e+02
-1.869375000000000000e+02,-4.728125000000000000e+01,-6.663000489999999445e+02
-1.869375000000000000e+02,-4.650000000000000000e+01,-6.793000489999999445e+02
-1.873281250000000000e+02,-4.650000000000000000e+01,-6.798000489999999445e+02
-1.869375000000000000e+02,-4.650000000000000000e+01,-6.663000489999999445e+02
-1.869375000000000000e+02,-4.571875000000000000e+01,-6.793000489999999445e+02
-1.869375000000000000e+02,-4.571875000000000000e+01,-6.663000489999999445e+02
-1.869375000000000000e+02,-4.532812500000000000e+01,-6.788000489999999445e+02
-1.873281250000000000e+02,-4.493750000000000000e+01,-6.788000489999999445e+02
-1.869375000000000000e+02,-4.493750000000000000e+01,-6.783000489999999445e+02
-1.869375000000000000e+02,-4.532812500000000000e+01,-6.758000489999999445e+02
-1.869375000000000000e+02,-4.493750000000000000e+01,-6.763000489999999445e+02
-1.869375000000000000e+02,-4.493750000000000000e+01,-6.753000489999999445e+02
-1.869375000000000000e+02,-4.532812500000000000e+01,-6.688000489999999445e+02
-1.869375000000000000e+02,-4.493750000000000000e+01,-6.693000489999999445e+02
-1.873281250000000000e+02,-4.493750000000000000e+01,-6.678000489999999445e+02
-1.869375000000000000e+02,-4.532812500000000000e+01,-6.678000489999999445e+02
-1.873281250000000000e+02,-4.493750000000000000e+01,-6.668000489999999445e+02
-1.869375000000000000e+02,-4.493750000000000000e+01,-6.673000489999999445e+02
-1.869375000000000000e+02,-4.493750000000000000e+01,-6.663000489999999445e+02
-1.869375000000000000e+02,-4.454687500000000000e+01,-6.778000489999999445e+02
-1.869375000000000000e+02,-4.454687500000000000e+01,-6.768000489999999445e+02
-1.869375000000000000e+02,-4.415625000000000000e+01,-6.753000489999999445e+02
-1.869375000000000000e+02,-4.454687500000000000e+01,-6.708000489999999445e+02
-1.869375000000000000e+02,-4.415625000000000000e+01,-6.713000489999999445e+02
-1.869375000000000000e+02,-4.454687500000000000e+01,-6.698000489999999445e+02
-1.869375000000000000e+02,-4.454687500000000000e+01,-6.668000489999999445e+02
-1.869375000000000000e+02,-4.376562500000000000e+01,-6.748000489999999445e+02
-1.869375000000000000e+02,-4.337500000000000000e+01,-6.743000489999999445e+02
-1.869375000000000000e+02,-4.337500000000000000e+01,-6.713000489999999445e+02
-1.869375000000000000e+02,-4.298437500000000000e+01,-6.738000489999999445e+02
-1.869375000000000000e+02,-4.298437500000000000e+01,-6.728000489999999445e+02
-1.869375000000000000e+02,-4.298437500000000000e+01,-6.718000489999999445e+02
-1.865468750000000000e+02,-5.431250000000000000e+01,-6.748000489999999445e+02
-1.865468750000000000e+02,-5.353125000000000000e+01,-6.758000489999999445e+02
-1.861562500000000000e+02,-5.353125000000000000e+01,-6.753000489999999445e+02
-1.861562500000000000e+02,-5.392187500000000000e+01,-6.748000489999999445e+02
-1.861562500000000000e+02,-5.392187500000000000e+01,-6.738000489999999445e+02
-1.865468750000000000e+02,-5.353125000000000000e+01,-6.728000489999999445e+02
-1.861562500000000000e+02,-5.353125000000000000e+01,-6.733000489999999445e+02
-1.865468750000000000e+02,-5.275000000000000000e+01,-6.758000489999999445e+02
-1.861562500000000000e+02,-5.275000000000000000e+01,-6.753000489999999445e+02
-1.861562500000000000e+02,-5.314062500000000000e+01,-6.728000489999999445e+02
-1.865468750000000000e+02,-5.275000000000000000e+01,-6.718000489999999445e+02
-1.861562500000000000e+02,-5.275000000000000000e+01,-6.723000489999999445e+02
-1.865468750000000000e+02,-5.275000000000000000e+01,-6.698000489999999445e+02
-1.865468750000000000e+02,-5.196875000000000000e+01,-6.758000489999999445e+02
-1.861562500000000000e+02,-5.196875000000000000e+01,-6.753000489999999445e+02
-1.861562500000000000e+02,-5.235937500000000000e+01,-6.718000489999999445e+02
-1.865468750000000000e+02,-5.196875000000000000e+01,-6.708000489999999445e+02
-1.861562500000000000e+02,-5.196875000000000000e+01,-6.713000489999999445e+02
-1.865468750000000000e+02,-5.196875000000000000e+01,-6.698000489999999445e+02
-1.861562500000000000e+02,-5.235937500000000000e+01,-6.688000489999999445e+02
-1.861562500000000000e+02,-5.196875000000000000e+01,-6.693000489999999445e+02
-1.861562500000000000e+02,-5.196875000000000000e+01,-6.683000489999999445e+02
-1.865468750000000000e+02,-5.118750000000000000e+01,-6.768000489999999445e+02
-1.861562500000000000e+02,-5.118750000000000000e+01,-6.763000489999999445e+02
-1.861562500000000000e+02,-5.157812500000000000e+01,-6.758000489999999445e+02
-1.861562500000000000e+02,-5.157812500000000000e+01,-6.708000489999999445e+02
-1.861562500000000000e+02,-5.157812500000000000e+01,-6.698000489999999445e+02
-1.865468750000000000e+02,-5.118750000000000000e+01,-6.678000489999999445e+02
-1.861562500000000000e+02,-5.118750000000000000e+01,-6.683000489999999445e+02
-1.865468750000000000e+02,-5.118750000000000000e+01,-6.668000489999999445e+02
-1.865468750000000000e+02,-5.118750000000000000e+01,-6.648000489999999445e+02
-1.865468750000000000e+02,-5.040625000000000000e+01,-6.768000489999999445e+02
-1.861562500000000000e+02,-5.040625000000000000e+01,-6.763000489999999445e+02
-1.861562500000000000e+02,-5.079687500000000000e+01,-6.678000489999999445e+02
-1.861562500000000000e+02,-5.079687500000000000e+01,-6.668000489999999445e+02
-1.861562500000000000e+02,-5.040625000000000000e+01,-6.663000489999999445e+02
-1.865468750000000000e+02,-4.962500000000000000e+01,-6.768000489999999445e+02
-1.861562500000000000e+02,-4.962500000000000000e+01,-6.763000489999999445e+02
-1.861562500000000000e+02,-4.962500000000000000e+01,-6.663000489999999445e+02
-1.861562500000000000e+02,-4.884375000000000000e+01,-6.773000489999999445e+02
-1.861562500000000000e+02,-4.923437500000000000e+01,-6.768000489999999445e+02
-1.861562500000000000e+02,-4.884375000000000000e+01,-6.663000489999999445e+02
-1.865468750000000000e+02,-4.806250000000000000e+01,-6.788000489999999445e+02
-1.861562500000000000e+02,-4.806250000000000000e+01,-6.783000489999999445e+02
-1.861562500000000000e+02,-4.845312500000000000e+01,-6.778000489999999445e+02
-1.861562500000000000e+02,-4.806250000000000000e+01,-6.663000489999999445e+02
-1.861562500000000000e+02,-4.728125000000000000e+01,-6.793000489999999445e+02
-1.861562500000000000e+02,-4.767187500000000000e+01,-6.788000489999999445e+02
-1.861562500000000000e+02,-4.728125000000000000e+01,-6.663000489999999445e+02
-1.861562500000000000e+02,-4.689062500000000000e+01,-6.788000489999999445e+02
-1.865468750000000000e+02,-4.650000000000000000e+01,-6.788000489999999445e+02
-1.861562500000000000e+02,-4.650000000000000000e+01,-6.783000489999999445e+02
-1.861562500000000000e+02,-4.650000000000000000e+01,-6.663000489999999445e+02
-1.865468750000000000e+02,-4.571875000000000000e+01,-6.788000489999999445e+02
-1.861562500000000000e+02,-4.571875000000000000e+01,-6.783000489999999445e+02
-1.861562500000000000e+02,-4.571875000000000000e+01,-6.663000489999999445e+02
-1.865468750000000000e+02,-4.493750000000000000e+01,-6.778000489999999445e+02
-1.861562500000000000e+02,-4.532812500000000000e+01,-6.778000489999999445e+02
-1.861562500000000000e+02,-4.493750000000000000e+01,-6.773000489999999445e+02
-1.861562500000000000e+02,-4.532812500000000000e+01,-6.758000489999999445e+02
-1.861562500000000000e+02,-4.493750000000000000e+01,-6.763000489999999445e+02
-1.861562500000000000e+02,-4.493750000000000000e+01,-6.753000489999999445e+02
-1.861562500000000000e+02,-4.532812500000000000e+01,-6.688000489999999445e+02
-1.861562500000000000e+02,-4.493750000000000000e+01,-6.693000489999999445e+02
-1.861562500000000000e+02,-4.532812500000000000e+01,-6.678000489999999445e+02
-1.861562500000000000e+02,-4.493750000000000000e+01,-6.673000489999999445e+02
-1.861562500000000000e+02,-4.493750000000000000e+01,-6.663000489999999445e+02
-1.861562500000000000e+02,-4.454687500000000000e+01,-6.768000489999999445e+02
-1.861562500000000000e+02,-4.415625000000000000e+01,-6.753000489999999445e+02
-1.865468750000000000e+02,-4.415625000000000000e+01,-6.708000489999999445e+02
-1.861562500000000000e+02,-4.415625000000000000e+01,-6.703000489999999445e+02
-1.861562500000000000e+02,-4.454687500000000000e+01,-6.698000489999999445e+02
-1.861562500000000000e+02,-4.454687500000000000e+01,-6.668000489999999445e+02
-1.861562500000000000e+02,-4.376562500000000000e+01,-6.748000489999999445e+02
-1.865468750000000000e+02,-4.337500000000000000e+01,-6.738000489999999445e+02
-1.861562500000000000e+02,-4.376562500000000000e+01,-6.738000489999999445e+02
-1.861562500000000000e+02,-4.337500000000000000e+01,-6.733000489999999445e+02
-1.865468750000000000e+02,-4.337500000000000000e+01,-6.718000489999999445e+02
-1.861562500000000000e+02,-4.376562500000000000e+01,-6.718000489999999445e+02
-1.861562500000000000e+02,-4.337500000000000000e+01,-6.723000489999999445e+02
-1.861562500000000000e+02,-4.376562500000000000e+01,-6.708000489999999445e+02
-1.861562500000000000e+02,-4.298437500000000000e+01,-6.728000489999999445e+02
-1.857656250000000000e+02,-5.353125000000000000e+01,-6.748000489999999445e+02
-1.857656250000000000e+02,-5.353125000000000000e+01,-6.738000489999999445e+02
-1.857656250000000000e+02,-5.275000000000000000e+01,-6.748000489999999445e+02
-1.853750000000000000e+02,-5.275000000000000000e+01,-6.743000489999999445e+02
-1.853750000000000000e+02,-5.314062500000000000e+01,-6.738000489999999445e+02
-1.857656250000000000e+02,-5.275000000000000000e+01,-6.728000489999999445e+02
-1.853750000000000000e+02,-5.275000000000000000e+01,-6.733000489999999445e+02
-1.853750000000000000e+02,-5.196875000000000000e+01,-6.753000489999999445e+02
-1.853750000000000000e+02,-5.235937500000000000e+01,-6.748000489999999445e+02
-1.853750000000000000e+02,-5.235937500000000000e+01,-6.728000489999999445e+02
-1.857656250000000000e+02,-5.196875000000000000e+01,-6.718000489999999445e+02
-1.853750000000000000e+02,-5.196875000000000000e+01,-6.723000489999999445e+02
-1.857656250000000000e+02,-5.196875000000000000e+01,-6.688000489999999445e+02
-1.857656250000000000e+02,-5.118750000000000000e+01,-6.758000489999999445e+02
-1.853750000000000000e+02,-5.118750000000000000e+01,-6.753000489999999445e+02
-1.853750000000000000e+02,-5.157812500000000000e+01,-6.718000489999999445e+02
-1.857656250000000000e+02,-5.118750000000000000e+01,-6.708000489999999445e+02
-1.853750000000000000e+02,-5.118750000000000000e+01,-6.713000489999999445e+02
-1.857656250000000000e+02,-5.118750000000000000e+01,-6.698000489999999445e+02
-1.857656250000000000e+02,-5.118750000000000000e+01,-6.688000489999999445e+02
-1.857656250000000000e+02,-5.040625000000000000e+01,-6.758000489999999445e+02
-1.853750000000000000e+02,-5.040625000000000000e+01,-6.753000489999999445e+02
-1.857656250000000000e+02,-5.040625000000000000e+01,-6.708000489999999445e+02
-1.853750000000000000e+02,-5.040625000000000000e+01,-6.713000489999999445e+02
-1.857656250000000000e+02,-5.040625000000000000e+01,-6.698000489999999445e+02
-1.853750000000000000e+02,-5.040625000000000000e+01,-6.693000489999999445e+02
-1.853750000000000000e+02,-5.079687500000000000e+01,-6.688000489999999445e+02
-1.857656250000000000e+02,-5.040625000000000000e+01,-6.678000489999999445e+02
-1.853750000000000000e+02,-5.040625000000000000e+01,-6.683000489999999445e+02
-1.857656250000000000e+02,-5.040625000000000000e+01,-6.668000489999999445e+02
-1.857656250000000000e+02,-4.962500000000000000e+01,-6.758000489999999445e+02
-1.853750000000000000e+02,-4.962500000000000000e+01,-6.753000489999999445e+02
-1.853750000000000000e+02,-5.001562500000000000e+01,-6.708000489999999445e+02
-1.853750000000000000e+02,-5.001562500000000000e+01,-6.698000489999999445e+02
-1.853750000000000000e+02,-5.001562500000000000e+01,-6.678000489999999445e+02
-1.853750000000000000e+02,-5.001562500000000000e+01,-6.668000489999999445e+02
-1.853750000000000000e+02,-4.962500000000000000e+01,-6.663000489999999445e+02
-1.857656250000000000e+02,-4.884375000000000000e+01,-6.768000489999999445e+02
-1.857656250000000000e+02,-4.884375000000000000e+01,-6.758000489999999445e+02
-1.853750000000000000e+02,-4.884375000000000000e+01,-6.753000489999999445e+02
-1.853750000000000000e+02,-4.884375000000000000e+01,-6.663000489999999445e+02
-1.857656250000000000e+02,-4.806250000000000000e+01,-6.778000489999999445e+02
-1.857656250000000000e+02,-4.806250000000000000e+01,-6.768000489999999445e+02
-1.857656250000000000e+02,-4.806250000000000000e+01,-6.758000489999999445e+02
-1.853750000000000000e+02,-4.806250000000000000e+01,-6.753000489999999445e+02
-1.857656250000000000e+02,-4.806250000000000000e+01,-6.728000489999999445e+02
-1.853750000000000000e+02,-4.845312500000000000e+01,-6.728000489999999445e+02
-1.853750000000000000e+02,-4.806250000000000000e+01,-6.733000489999999445e+02
-1.857656250000000000e+02,-4.806250000000000000e+01,-6.718000489999999445e+02
-1.853750000000000000e+02,-4.845312500000000000e+01,-6.718000489999999445e+02
-1.853750000000000000e+02,-4.806250000000000000e+01,-6.713000489999999445e+02
-1.853750000000000000e+02,-4.806250000000000000e+01,-6.663000489999999445e+02
-1.857656250000000000e+02,-4.728125000000000000e+01,-6.788000489999999445e+02
-1.857656250000000000e+02,-4.728125000000000000e+01,-6.778000489999999445e+02
-1.857656250000000000e+02,-4.728125000000000000e+01,-6.768000489999999445e+02
-1.857656250000000000e+02,-4.728125000000000000e+01,-6.758000489999999445e+02
-1.853750000000000000e+02,-4.728125000000000000e+01,-6.753000489999999445e+02
-1.853750000000000000e+02,-4.767187500000000000e+01,-6.728000489999999445e+02
-1.853750000000000000e+02,-4.767187500000000000e+01,-6.718000489999999445e+02
-1.853750000000000000e+02,-4.728125000000000000e+01,-6.663000489999999445e+02
-1.857656250000000000e+02,-4.650000000000000000e+01,-6.778000489999999445e+02
-1.857656250000000000e+02,-4.650000000000000000e+01,-6.768000489999999445e+02
-1.857656250000000000e+02,-4.650000000000000000e+01,-6.758000489999999445e+02
-1.853750000000000000e+02,-4.650000000000000000e+01,-6.753000489999999445e+02
-1.853750000000000000e+02,-4.650000000000000000e+01,-6.663000489999999445e+02
-1.857656250000000000e+02,-4.571875000000000000e+01,-6.778000489999999445e+02
-1.857656250000000000e+02,-4.571875000000000000e+01,-6.768000489999999445e+02
-1.857656250000000000e+02,-4.571875000000000000e+01,-6.758000489999999445e+02
-1.853750000000000000e+02,-4.571875000000000000e+01,-6.753000489999999445e+02
-1.853750000000000000e+02,-4.571875000000000000e+01,-6.663000489999999445e+02
-1.857656250000000000e+02,-4.493750000000000000e+01,-6.768000489999999445e+02
-1.857656250000000000e+02,-4.493750000000000000e+01,-6.748000489999999445e+02
-1.853750000000000000e+02,-4.532812500000000000e+01,-6.748000489999999445e+02
-1.857656250000000000e+02,-4.493750000000000000e+01,-6.738000489999999445e+02
-1.853750000000000000e+02,-4.532812500000000000e+01,-6.738000489999999445e+02
-1.857656250000000000e+02,-4.493750000000000000e+01,-6.728000489999999445e+02
-1.853750000000000000e+02,-4.532812500000000000e+01,-6.728000489999999445e+02
-1.857656250000000000e+02,-4.493750000000000000e+01,-6.718000489999999445e+02
-1.853750000000000000e+02,-4.532812500000000000e+01,-6.718000489999999445e+02
-1.853750000000000000e+02,-4.493750000000000000e+01,-6.713000489999999445e+02
-1.853750000000000000e+02,-4.532812500000000000e+01,-6.688000489999999445e+02
-1.853750000000000000e+02,-4.493750000000000000e+01,-6.693000489999999445e+02
-1.853750000000000000e+02,-4.532812500000000000e+01,-6.678000489999999445e+02
-1.857656250000000000e+02,-4.493750000000000000e+01,-6.668000489999999445e+02
-1.853750000000000000e+02,-4.532812500000000000e+01,-6.668000489999999445e+02
-1.857656250000000000e+02,-4.415625000000000000e+01,-6.748000489999999445e+02
-1.857656250000000000e+02,-4.415625000000000000e+01,-6.738000489999999445e+02
-1.857656250000000000e+02,-4.415625000000000000e+01,-6.728000489999999445e+02
-1.857656250000000000e+02,-4.415625000000000000e+01,-6.718000489999999445e+02
-1.853750000000000000e+02,-4.415625000000000000e+01,-6.713000489999999445e+02
-1.853750000000000000e+02,-4.454687500000000000e+01,-6.698000489999999445e+02
-1.853750000000000000e+02,-4.415625000000000000e+01,-6.703000489999999445e+02
-1.857656250000000000e+02,-4.337500000000000000e+01,-6.728000489999999445e+02
-1.853750000000000000e+02,-4.376562500000000000e+01,-6.708000489999999445e+02
-1.849843750000000000e+02,-5.275000000000000000e+01,-6.738000489999999445e+02
-1.849843750000000000e+02,-5.196875000000000000e+01,-6.748000489999999445e+02
-1.849843750000000000e+02,-5.196875000000000000e+01,-6.738000489999999445e+02
-1.849843750000000000e+02,-5.196875000000000000e+01,-6.728000489999999445e+02
-1.849843750000000000e+02,-5.118750000000000000e+01,-6.748000489999999445e+02
-1.849843750000000000e+02,-5.118750000000000000e+01,-6.738000489999999445e+02
-1.845937500000000000e+02,-5.118750000000000000e+01,-6.733000489999999445e+02
-1.845937500000000000e+02,-5.157812500000000000e+01,-6.728000489999999445e+02
-1.845937500000000000e+02,-5.157812500000000000e+01,-6.718000489999999445e+02
-1.845937500000000000e+02,-5.118750000000000000e+01,-6.713000489999999445e+02
-1.849843750000000000e+02,-5.040625000000000000e+01,-6.748000489999999445e+02
-1.849843750000000000e+02,-5.040625000000000000e+01,-6.738000489999999445e+02
-1.845937500000000000e+02,-5.040625000000000000e+01,-6.733000489999999445e+02
-1.845937500000000000e+02,-5.040625000000000000e+01,-6.713000489999999445e+02
-1.849843750000000000e+02,-5.040625000000000000e+01,-6.688000489999999445e+02
-1.849843750000000000e+02,-4.962500000000000000e+01,-6.748000489999999445e+02
-1.849843750000000000e+02,-4.962500000000000000e+01,-6.738000489999999445e+02
-1.845937500000000000e+02,-4.962500000000000000e+01,-6.733000489999999445e+02
-1.849843750000000000e+02,-4.962500000000000000e+01,-6.708000489999999445e+02
-1.845937500000000000e+02,-4.962500000000000000e+01,-6.713000489999999445e+02
-1.849843750000000000e+02,-4.962500000000000000e+01,-6.698000489999999445e+02
-1.849843750000000000e+02,-4.962500000000000000e+01,-6.688000489999999445e+02
-1.845937500000000000e+02,-5.001562500000000000e+01,-6.678000489999999445e+02
-1.845937500000000000e+02,-4.962500000000000000e+01,-6.683000489999999445e+02
-1.845937500000000000e+02,-5.001562500000000000e+01,-6.668000489999999445e+02
-1.845937500000000000e+02,-4.962500000000000000e+01,-6.663000489999999445e+02
-1.849843750000000000e+02,-4.884375000000000000e+01,-6.748000489999999445e+02
-1.849843750000000000e+02,-4.884375000000000000e+01,-6.738000489999999445e+02
-1.845937500000000000e+02,-4.923437500000000000e+01,-6.728000489999999445e+02
-1.849843750000000000e+02,-4.884375000000000000e+01,-6.728000489999999445e+02
-1.849843750000000000e+02,-4.884375000000000000e+01,-6.718000489999999445e+02
-1.845937500000000000e+02,-4.923437500000000000e+01,-6.718000489999999445e+02
-1.845937500000000000e+02,-4.923437500000000000e+01,-6.708000489999999445e+02
-1.845937500000000000e+02,-4.884375000000000000e+01,-6.713000489999999445e+02
-1.845937500000000000e+02,-4.923437500000000000e+01,-6.698000489999999445e+02
-1.845937500000000000e+02,-4.923437500000000000e+01,-6.688000489999999445e+02
-1.845937500000000000e+02,-4.884375000000000000e+01,-6.663000489999999445e+02
-1.849843750000000000e+02,-4.806250000000000000e+01,-6.748000489999999445e+02
-1.849843750000000000e+02,-4.806250000000000000e+01,-6.738000489999999445e+02
-1.849843750000000000e+02,-4.806250000000000000e+01,-6.708000489999999445e+02
-1.845937500000000000e+02,-4.845312500000000000e+01,-6.708000489999999445e+02
-1.845937500000000000e+02,-4.806250000000000000e+01,-6.703000489999999445e+02
-1.845937500000000000e+02,-4.806250000000000000e+01,-6.663000489999999445e+02
-1.849843750000000000e+02,-4.728125000000000000e+01,-6.748000489999999445e+02
-1.849843750000000000e+02,-4.728125000000000000e+01,-6.738000489999999445e+02
-1.849843750000000000e+02,-4.728125000000000000e+01,-6.728000489999999445e+02
-1.849843750000000000e+02,-4.728125000000000000e+01,-6.718000489999999445e+02
-1.849843750000000000e+02,-4.728125000000000000e+01,-6.708000489999999445e+02
-1.845937500000000000e+02,-4.728125000000000000e+01,-6.703000489999999445e+02
-1.845937500000000000e+02,-4.728125000000000000e+01,-6.663000489999999445e+02
-1.849843750000000000e+02,-4.650000000000000000e+01,-6.748000489999999445e+02
-1.849843750000000000e+02,-4.650000000000000000e+01,-6.738000489999999445e+02
-1.849843750000000000e+02,-4.650000000000000000e+01,-6.728000489999999445e+02
-1.849843750000000000e+02,-4.650000000000000000e+01,-6.718000489999999445e+02
-1.849843750000000000e+02,-4.650000000000000000e+01,-6.708000489999999445e+02
-1.845937500000000000e+02,-4.689062500000000000e+01,-6.698000489999999445e+02
-1.849843750000000000e+02,-4.650000000000000000e+01,-6.698000489999999445e+02
-1.845937500000000000e+02,-4.650000000000000000e+01,-6.693000489999999445e+02
-1.845937500000000000e+02,-4.650000000000000000e+01,-6.663000489999999445e+02
-1.849843750000000000e+02,-4.571875000000000000e+01,-6.748000489999999445e+02
-1.849843750000000000e+02,-4.571875000000000000e+01,-6.738000489999999445e+02
-1.849843750000000000e+02,-4.571875000000000000e+01,-6.728000489999999445e+02
-1.849843750000000000e+02,-4.571875000000000000e+01,-6.718000489999999445e+02
-1.849843750000000000e+02,-4.571875000000000000e+01,-6.708000489999999445e+02
-1.849843750000000000e+02,-4.571875000000000000e+01,-6.698000489999999445e+02
-1.845937500000000000e+02,-4.571875000000000000e+01,-6.693000489999999445e+02
-1.845937500000000000e+02,-4.571875000000000000e+01,-6.663000489999999445e+02
-1.849843750000000000e+02,-4.493750000000000000e+01,-6.708000489999999445e+02
-1.849843750000000000e+02,-4.493750000000000000e+01,-6.698000489999999445e+02
-1.845937500000000000e+02,-4.532812500000000000e+01,-6.688000489999999445e+02
-1.845937500000000000e+02,-4.532812500000000000e+01,-6.678000489999999445e+02
-1.845937500000000000e+02,-4.532812500000000000e+01,-6.668000489999999445e+02
-1.849843750000000000e+02,-4.415625000000000000e+01,-6.708000489999999445e+02
-1.842031250000000000e+02,-5.118750000000000000e+01,-6.728000489999999445e+02
-1.842031250000000000e+02,-5.118750000000000000e+01,-6.718000489999999445e+02
-1.842031250000000000e+02,-5.040625000000000000e+01,-6.728000489999999445e+02
-1.842031250000000000e+02,-5.040625000000000000e+01,-6.718000489999999445e+02
-1.842031250000000000e+02,-4.962500000000000000e+01,-6.728000489999999445e+02
-1.842031250000000000e+02,-4.962500000000000000e+01,-6.718000489999999445e+02
-1.842031250000000000e+02,-4.962500000000000000e+01,-6.678000489999999445e+02
-1.842031250000000000e+02,-4.962500000000000000e+01,-6.668000489999999445e+02
-1.842031250000000000e+02,-4.884375000000000000e+01,-6.708000489999999445e+02
-1.842031250000000000e+02,-4.884375000000000000e+01,-6.698000489999999445e+02
-1.842031250000000000e+02,-4.884375000000000000e+01,-6.688000489999999445e+02
-1.838125000000000000e+02,-4.884375000000000000e+01,-6.683000489999999445e+02
