-2.204898379999999918e+02,-2.096390700000000038e+02,-3.942500000000000000e+02
-2.200796819999999911e+02,-2.096390700000000038e+02,-3.955000000000000000e+02
-2.200796819999999911e+02,-2.100492260000000044e+02,-3.942500000000000000e+02
-2.200796819999999911e+02,-2.096390700000000038e+02,-3.930000000000000000e+02
-2.204898379999999918e+02,-2.088187580000000025e+02,-3.942500000000000000e+02
-2.200796819999999911e+02,-2.088187580000000025e+02,-3.955000000000000000e+02
-2.200796819999999911e+02,-2.088187580000000025e+02,-3.930000000000000000e+02
-2.200796819999999911e+02,-2.084086020000000019e+02,-3.942500000000000000e+02
-2.196695259999999905e+02,-2.104593820000000051e+02,-3.942500000000000000e+02
-2.192593699999999899e+02,-2.104593820000000051e+02,-3.955000000000000000e+02
-2.192593699999999899e+02,-2.108695380000000057e+02,-3.942500000000000000e+02
-2.192593699999999899e+02,-2.108695380000000057e+02,-3.917500000000000000e+02
-2.196695259999999905e+02,-2.104593820000000051e+02,-3.917500000000000000e+02
-2.192593699999999899e+02,-2.104593820000000051e+02,-3.905000000000000000e+02
-2.192593699999999899e+02,-2.096390700000000038e+02,-3.955000000000000000e+02
-2.196695259999999905e+02,-2.096390700000000038e+02,-3.917500000000000000e+02
-2.192593699999999899e+02,-2.096390700000000038e+02,-3.905000000000000000e+02
-2.192593699999999899e+02,-2.088187580000000025e+02,-3.955000000000000000e+02
-2.196695259999999905e+02,-2.088187580000000025e+02,-3.917500000000000000e+02
-2.192593699999999899e+02,-2.092289140000000032e+02,-3.892500000000000000e+02
-2.196695259999999905e+02,-2.088187580000000025e+02,-3.892500000000000000e+02
-2.196695259999999905e+02,-2.079984460000000013e+02,-3.942500000000000000e+02
-2.192593699999999899e+02,-2.079984460000000013e+02,-3.955000000000000000e+02
-2.196695259999999905e+02,-2.079984460000000013e+02,-3.917500000000000000e+02
-2.192593699999999899e+02,-2.079984460000000013e+02,-3.905000000000000000e+02
-2.192593699999999899e+02,-2.084086020000000019e+02,-3.892500000000000000e+02
-2.192593699999999899e+02,-2.075882900000000006e+02,-3.942500000000000000e+02
-2.196695259999999905e+02,-2.071781340000000000e+02,-3.917500000000000000e+02
-2.192593699999999899e+02,-2.071781340000000000e+02,-3.930000000000000000e+02
-2.192593699999999899e+02,-2.071781340000000000e+02,-3.905000000000000000e+02
-2.192593699999999899e+02,-2.067679779999999994e+02,-3.917500000000000000e+02
-2.188492139999999893e+02,-2.112796940000000063e+02,-3.967500000000000000e+02
-2.184390579999999886e+02,-2.112796940000000063e+02,-3.980000000000000000e+02
-2.184390579999999886e+02,-2.116898500000000070e+02,-3.967500000000000000e+02
-2.184390579999999886e+02,-2.116898500000000070e+02,-3.942500000000000000e+02
-2.188492139999999893e+02,-2.112796940000000063e+02,-3.942500000000000000e+02
-2.184390579999999886e+02,-2.112796940000000063e+02,-3.930000000000000000e+02
-2.188492139999999893e+02,-2.104593820000000051e+02,-3.967500000000000000e+02
-2.184390579999999886e+02,-2.104593820000000051e+02,-3.980000000000000000e+02
-2.184390579999999886e+02,-2.108695380000000057e+02,-3.917500000000000000e+02
-2.184390579999999886e+02,-2.104593820000000051e+02,-3.905000000000000000e+02
-2.188492139999999893e+02,-2.096390700000000038e+02,-3.967500000000000000e+02
-2.184390579999999886e+02,-2.096390700000000038e+02,-3.980000000000000000e+02
-2.184390579999999886e+02,-2.100492260000000044e+02,-3.892500000000000000e+02
-2.188492139999999893e+02,-2.096390700000000038e+02,-3.892500000000000000e+02
-2.188492139999999893e+02,-2.088187580000000025e+02,-3.967500000000000000e+02
-2.184390579999999886e+02,-2.088187580000000025e+02,-3.980000000000000000e+02
-2.184390579999999886e+02,-2.084086020000000019e+02,-3.967500000000000000e+02
-2.184390579999999886e+02,-2.079984460000000013e+02,-3.955000000000000000e+02
-2.188492139999999893e+02,-2.079984460000000013e+02,-3.892500000000000000e+02
-2.184390579999999886e+02,-2.075882900000000006e+02,-3.942500000000000000e+02
-2.184390579999999886e+02,-2.071781340000000000e+02,-3.930000000000000000e+02
-2.188492139999999893e+02,-2.071781340000000000e+02,-3.892500000000000000e+02
-2.184390579999999886e+02,-2.067679779999999994e+02,-3.917500000000000000e+02
-2.184390579999999886e+02,-2.067679779999999994e+02,-3.892500000000000000e+02
-2.176187459999999874e+02,-2.112796940000000063e+02,-3.980000000000000000e+02
-2.176187459999999874e+02,-2.116898500000000070e+02,-3.967500000000000000e+02
-2.176187459999999874e+02,-2.116898500000000070e+02,-3.942500000000000000e+02
-2.176187459999999874e+02,-2.112796940000000063e+02,-3.930000000000000000e+02
-2.176187459999999874e+02,-2.104593820000000051e+02,-3.980000000000000000e+02
-2.176187459999999874e+02,-2.108695380000000057e+02,-3.917500000000000000e+02
-2.176187459999999874e+02,-2.108695380000000057e+02,-3.892500000000000000e+02
-2.180289019999999880e+02,-2.104593820000000051e+02,-3.892500000000000000e+02
-2.176187459999999874e+02,-2.096390700000000038e+02,-3.980000000000000000e+02
-2.176187459999999874e+02,-2.088187580000000025e+02,-3.980000000000000000e+02
-2.180289019999999880e+02,-2.079984460000000013e+02,-3.967500000000000000e+02
-2.176187459999999874e+02,-2.079984460000000013e+02,-3.980000000000000000e+02
-2.180289019999999880e+02,-2.071781340000000000e+02,-3.967500000000000000e+02
-2.176187459999999874e+02,-2.071781340000000000e+02,-3.980000000000000000e+02
-2.176187459999999874e+02,-2.075882900000000006e+02,-3.942500000000000000e+02
-2.176187459999999874e+02,-2.071781340000000000e+02,-3.955000000000000000e+02
-2.176187459999999874e+02,-2.071781340000000000e+02,-3.930000000000000000e+02
-2.176187459999999874e+02,-2.067679779999999994e+02,-3.967500000000000000e+02
-2.176187459999999874e+02,-2.067679779999999994e+02,-3.917500000000000000e+02
-2.176187459999999874e+02,-2.067679779999999994e+02,-3.892500000000000000e+02
-2.167984339999999861e+02,-2.112796940000000063e+02,-3.980000000000000000e+02
-2.167984339999999861e+02,-2.116898500000000070e+02,-3.967500000000000000e+02
-2.167984339999999861e+02,-2.116898500000000070e+02,-3.942500000000000000e+02
-2.167984339999999861e+02,-2.112796940000000063e+02,-3.930000000000000000e+02
-2.167984339999999861e+02,-2.104593820000000051e+02,-3.980000000000000000e+02
-2.167984339999999861e+02,-2.108695380000000057e+02,-3.917500000000000000e+02
-2.172085899999999867e+02,-2.104593820000000051e+02,-3.892500000000000000e+02
-2.167984339999999861e+02,-2.104593820000000051e+02,-3.905000000000000000e+02
-2.167984339999999861e+02,-2.096390700000000038e+02,-3.980000000000000000e+02
-2.167984339999999861e+02,-2.100492260000000044e+02,-3.892500000000000000e+02
-2.167984339999999861e+02,-2.088187580000000025e+02,-3.980000000000000000e+02
-2.167984339999999861e+02,-2.079984460000000013e+02,-3.980000000000000000e+02
-2.167984339999999861e+02,-2.071781340000000000e+02,-3.980000000000000000e+02
-2.167984339999999861e+02,-2.075882900000000006e+02,-3.942500000000000000e+02
-2.167984339999999861e+02,-2.071781340000000000e+02,-3.955000000000000000e+02
-2.167984339999999861e+02,-2.071781340000000000e+02,-3.930000000000000000e+02
-2.167984339999999861e+02,-2.067679779999999994e+02,-3.967500000000000000e+02
-2.167984339999999861e+02,-2.067679779999999994e+02,-3.917500000000000000e+02
-2.167984339999999861e+02,-2.067679779999999994e+02,-3.892500000000000000e+02
-2.159781219999999848e+02,-2.112796940000000063e+02,-3.980000000000000000e+02
-2.159781219999999848e+02,-2.116898500000000070e+02,-3.967500000000000000e+02
-2.163882779999999855e+02,-2.112796940000000063e+02,-3.942500000000000000e+02
-2.159781219999999848e+02,-2.112796940000000063e+02,-3.955000000000000000e+02
-2.163882779999999855e+02,-2.104593820000000051e+02,-3.992500000000000000e+02
-2.159781219999999848e+02,-2.108695380000000057e+02,-3.992500000000000000e+02
-2.159781219999999848e+02,-2.108695380000000057e+02,-3.942500000000000000e+02
-2.159781219999999848e+02,-2.108695380000000057e+02,-3.917500000000000000e+02
-2.159781219999999848e+02,-2.104593820000000051e+02,-3.905000000000000000e+02
-2.163882779999999855e+02,-2.096390700000000038e+02,-3.992500000000000000e+02
-2.163882779999999855e+02,-2.096390700000000038e+02,-3.892500000000000000e+02
-2.159781219999999848e+02,-2.096390700000000038e+02,-3.905000000000000000e+02
-2.159781219999999848e+02,-2.092289140000000032e+02,-3.992500000000000000e+02
-2.159781219999999848e+02,-2.088187580000000025e+02,-3.980000000000000000e+02
-2.163882779999999855e+02,-2.088187580000000025e+02,-3.892500000000000000e+02
-2.159781219999999848e+02,-2.088187580000000025e+02,-3.905000000000000000e+02
-2.159781219999999848e+02,-2.079984460000000013e+02,-3.980000000000000000e+02
-2.163882779999999855e+02,-2.079984460000000013e+02,-3.892500000000000000e+02
-2.159781219999999848e+02,-2.079984460000000013e+02,-3.905000000000000000e+02
-2.159781219999999848e+02,-2.071781340000000000e+02,-3.980000000000000000e+02
-2.159781219999999848e+02,-2.075882900000000006e+02,-3.942500000000000000e+02
-2.159781219999999848e+02,-2.071781340000000000e+02,-3.955000000000000000e+02
-2.159781219999999848e+02,-2.071781340000000000e+02,-3.930000000000000000e+02
-2.163882779999999855e+02,-2.071781340000000000e+02,-3.892500000000000000e+02
-2.159781219999999848e+02,-2.071781340000000000e+02,-3.905000000000000000e+02
-2.159781219999999848e+02,-2.067679779999999994e+02,-3.967500000000000000e+02
-2.159781219999999848e+02,-2.067679779999999994e+02,-3.917500000000000000e+02
-2.155679659999999842e+02,-2.112796940000000063e+02,-3.967500000000000000e+02
-2.151578099999999836e+02,-2.108695380000000057e+02,-3.967500000000000000e+02
-2.151578099999999836e+02,-2.108695380000000057e+02,-3.992500000000000000e+02
-2.155679659999999842e+02,-2.104593820000000051e+02,-3.942500000000000000e+02
-2.151578099999999836e+02,-2.104593820000000051e+02,-3.955000000000000000e+02
-2.155679659999999842e+02,-2.104593820000000051e+02,-3.917500000000000000e+02
-2.151578099999999836e+02,-2.100492260000000044e+02,-3.992500000000000000e+02
-2.155679659999999842e+02,-2.096390700000000038e+02,-3.992500000000000000e+02
-2.151578099999999836e+02,-2.096390700000000038e+02,-3.980000000000000000e+02
-2.151578099999999836e+02,-2.100492260000000044e+02,-3.942500000000000000e+02
-2.151578099999999836e+02,-2.100492260000000044e+02,-3.917500000000000000e+02
-2.151578099999999836e+02,-2.096390700000000038e+02,-3.905000000000000000e+02
-2.151578099999999836e+02,-2.088187580000000025e+02,-3.980000000000000000e+02
-2.151578099999999836e+02,-2.088187580000000025e+02,-3.905000000000000000e+02
-2.151578099999999836e+02,-2.079984460000000013e+02,-3.980000000000000000e+02
-2.151578099999999836e+02,-2.079984460000000013e+02,-3.905000000000000000e+02
-2.151578099999999836e+02,-2.075882900000000006e+02,-3.967500000000000000e+02
-2.155679659999999842e+02,-2.071781340000000000e+02,-3.967500000000000000e+02
-2.151578099999999836e+02,-2.075882900000000006e+02,-3.942500000000000000e+02
-2.155679659999999842e+02,-2.071781340000000000e+02,-3.917500000000000000e+02
-2.151578099999999836e+02,-2.075882900000000006e+02,-3.917500000000000000e+02
-2.143374979999999823e+02,-2.104593820000000051e+02,-3.980000000000000000e+02
-2.147476539999999829e+02,-2.104593820000000051e+02,-3.992500000000000000e+02
-2.143374979999999823e+02,-2.108695380000000057e+02,-3.967500000000000000e+02
-2.143374979999999823e+02,-2.104593820000000051e+02,-3.955000000000000000e+02
-2.143374979999999823e+02,-2.096390700000000038e+02,-3.980000000000000000e+02
-2.147476539999999829e+02,-2.096390700000000038e+02,-3.942500000000000000e+02
-2.143374979999999823e+02,-2.096390700000000038e+02,-3.955000000000000000e+02
-2.147476539999999829e+02,-2.096390700000000038e+02,-3.917500000000000000e+02
-2.143374979999999823e+02,-2.088187580000000025e+02,-3.980000000000000000e+02
-2.143374979999999823e+02,-2.092289140000000032e+02,-3.942500000000000000e+02
-2.143374979999999823e+02,-2.092289140000000032e+02,-3.917500000000000000e+02
-2.143374979999999823e+02,-2.088187580000000025e+02,-3.905000000000000000e+02
-2.143374979999999823e+02,-2.079984460000000013e+02,-3.980000000000000000e+02
-2.147476539999999829e+02,-2.079984460000000013e+02,-3.917500000000000000e+02
-2.143374979999999823e+02,-2.084086020000000019e+02,-3.917500000000000000e+02
-2.143374979999999823e+02,-2.079984460000000013e+02,-3.930000000000000000e+02
-2.143374979999999823e+02,-2.075882900000000006e+02,-3.967500000000000000e+02
-2.143374979999999823e+02,-2.075882900000000006e+02,-3.942500000000000000e+02
-2.139273419999999817e+02,-2.104593820000000051e+02,-3.967500000000000000e+02
-2.135171859999999810e+02,-2.096390700000000038e+02,-3.980000000000000000e+02
-2.135171859999999810e+02,-2.100492260000000044e+02,-3.967500000000000000e+02
-2.135171859999999810e+02,-2.096390700000000038e+02,-3.955000000000000000e+02
-2.135171859999999810e+02,-2.088187580000000025e+02,-3.980000000000000000e+02
-2.135171859999999810e+02,-2.092289140000000032e+02,-3.942500000000000000e+02
-2.139273419999999817e+02,-2.088187580000000025e+02,-3.917500000000000000e+02
-2.135171859999999810e+02,-2.088187580000000025e+02,-3.930000000000000000e+02
-2.135171859999999810e+02,-2.079984460000000013e+02,-3.980000000000000000e+02
-2.139273419999999817e+02,-2.079984460000000013e+02,-3.942500000000000000e+02
-2.135171859999999810e+02,-2.084086020000000019e+02,-3.942500000000000000e+02
-2.135171859999999810e+02,-2.079984460000000013e+02,-3.955000000000000000e+02
-2.135171859999999810e+02,-2.075882900000000006e+02,-3.967500000000000000e+02
-2.131070299999999804e+02,-2.096390700000000038e+02,-3.967500000000000000e+02
-2.131070299999999804e+02,-2.088187580000000025e+02,-3.967500000000000000e+02
-2.131070299999999804e+02,-2.088187580000000025e+02,-3.942500000000000000e+02
-2.131070299999999804e+02,-2.079984460000000013e+02,-3.967500000000000000e+02
