-2.001414049999999918e+02,-1.826015679999999861e+02,-3.272474980386029415e+02
-2.001414049999999918e+02,-1.829628960000000006e+02,-3.269349980404412008e+02
-2.001414049999999918e+02,-1.822402400000000000e+02,-3.281849980330882204e+02
-2.001414049999999918e+02,-1.822402400000000000e+02,-3.275599980367647390e+02
-1.997800770000000057e+02,-1.977773439999999994e+02,-3.244349980551470480e+02
-1.997800770000000057e+02,-1.977773439999999994e+02,-3.238099980588235098e+02
-1.997800770000000057e+02,-1.970546879999999987e+02,-3.275599980367647390e+02
-1.994187489999999912e+02,-1.970546879999999987e+02,-3.278724980349264797e+02
-1.994187489999999912e+02,-1.974160160000000133e+02,-3.275599980367647390e+02
-1.994187489999999912e+02,-1.970546879999999987e+02,-3.272474980386029415e+02
-1.994187489999999912e+02,-1.970546879999999987e+02,-3.247474980533088456e+02
-1.994187489999999912e+02,-1.974160160000000133e+02,-3.244349980551470480e+02
-1.994187489999999912e+02,-1.974160160000000133e+02,-3.238099980588235098e+02
-1.994187489999999912e+02,-1.970546879999999987e+02,-3.234974980606617692e+02
-1.997800770000000057e+02,-1.963320319999999981e+02,-3.281849980330882204e+02
-1.994187489999999912e+02,-1.963320319999999981e+02,-3.284974980312500179e+02
-1.994187489999999912e+02,-1.966933600000000126e+02,-3.281849980330882204e+02
-1.994187489999999912e+02,-1.966933600000000126e+02,-3.269349980404412008e+02
-1.997800770000000057e+02,-1.963320319999999981e+02,-3.269349980404412008e+02
-1.994187489999999912e+02,-1.963320319999999981e+02,-3.266224980422794033e+02
-1.997800770000000057e+02,-1.963320319999999981e+02,-3.250599980514705862e+02
-1.994187489999999912e+02,-1.963320319999999981e+02,-3.247474980533088456e+02
-1.997800770000000057e+02,-1.963320319999999981e+02,-3.231849980625000285e+02
-1.994187489999999912e+02,-1.963320319999999981e+02,-3.234974980606617692e+02
-1.994187489999999912e+02,-1.956093759999999975e+02,-3.284974980312500179e+02
-1.994187489999999912e+02,-1.956093759999999975e+02,-3.266224980422794033e+02
-1.997800770000000057e+02,-1.956093759999999975e+02,-3.250599980514705862e+02
-1.994187489999999912e+02,-1.956093759999999975e+02,-3.247474980533088456e+02
-1.994187489999999912e+02,-1.959707040000000120e+02,-3.231849980625000285e+02
-1.994187489999999912e+02,-1.956093759999999975e+02,-3.228724980643382310e+02
-1.997800770000000057e+02,-1.948867199999999968e+02,-3.313099980147059114e+02
-1.994187489999999912e+02,-1.948867199999999968e+02,-3.316224980128676521e+02
-1.994187489999999912e+02,-1.952480480000000114e+02,-3.313099980147059114e+02
-1.994187489999999912e+02,-1.952480480000000114e+02,-3.306849980183823732e+02
-1.997800770000000057e+02,-1.948867199999999968e+02,-3.300599980220588350e+02
-1.994187489999999912e+02,-1.948867199999999968e+02,-3.303724980202205757e+02
-1.997800770000000057e+02,-1.948867199999999968e+02,-3.294349980257352968e+02
-1.994187489999999912e+02,-1.948867199999999968e+02,-3.291224980275735561e+02
-1.994187489999999912e+02,-1.952480480000000114e+02,-3.288099980294117586e+02
-1.994187489999999912e+02,-1.952480480000000114e+02,-3.263099980441176626e+02
-1.997800770000000057e+02,-1.948867199999999968e+02,-3.256849980477941244e+02
-1.994187489999999912e+02,-1.948867199999999968e+02,-3.259974980459558651e+02
-1.994187489999999912e+02,-1.948867199999999968e+02,-3.253724980496323838e+02
-1.994187489999999912e+02,-1.952480480000000114e+02,-3.250599980514705862e+02
-1.994187489999999912e+02,-1.948867199999999968e+02,-3.228724980643382310e+02
-1.997800770000000057e+02,-1.941640639999999962e+02,-3.331849980036764691e+02
-1.994187489999999912e+02,-1.941640639999999962e+02,-3.334974980018382666e+02
-1.994187489999999912e+02,-1.945253920000000107e+02,-3.331849980036764691e+02
-1.994187489999999912e+02,-1.941640639999999962e+02,-3.328724980055147284e+02
-1.994187489999999912e+02,-1.941640639999999962e+02,-3.316224980128676521e+02
-1.994187489999999912e+02,-1.945253920000000107e+02,-3.300599980220588350e+02
-1.994187489999999912e+02,-1.945253920000000107e+02,-3.294349980257352968e+02
-1.994187489999999912e+02,-1.945253920000000107e+02,-3.256849980477941244e+02
-1.994187489999999912e+02,-1.941640639999999962e+02,-3.228724980643382310e+02
-1.994187489999999912e+02,-1.934414079999999956e+02,-3.334974980018382666e+02
-1.994187489999999912e+02,-1.938027360000000101e+02,-3.325599980073529309e+02
-1.997800770000000057e+02,-1.934414079999999956e+02,-3.325599980073529309e+02
-1.994187489999999912e+02,-1.938027360000000101e+02,-3.319349980110293927e+02
-1.994187489999999912e+02,-1.934414079999999956e+02,-3.228724980643382310e+02
-1.994187489999999912e+02,-1.927187519999999950e+02,-3.334974980018382666e+02
-1.994187489999999912e+02,-1.927187519999999950e+02,-3.228724980643382310e+02
-1.997800770000000057e+02,-1.919960959999999943e+02,-3.338099980000000073e+02
-1.994187489999999912e+02,-1.923574240000000088e+02,-3.338099980000000073e+02
-1.994187489999999912e+02,-1.923574240000000088e+02,-3.225599980661764903e+02
-1.997800770000000057e+02,-1.919960959999999943e+02,-3.225599980661764903e+02
-1.997800770000000057e+02,-1.912734399999999937e+02,-3.338099980000000073e+02
-1.994187489999999912e+02,-1.909121120000000076e+02,-3.338099980000000073e+02
-1.994187489999999912e+02,-1.905507839999999931e+02,-3.334974980018382666e+02
-1.997800770000000057e+02,-1.898281279999999924e+02,-3.331849980036764691e+02
-1.994187489999999912e+02,-1.898281279999999924e+02,-3.334974980018382666e+02
-1.997800770000000057e+02,-1.891054719999999918e+02,-3.331849980036764691e+02
-1.994187489999999912e+02,-1.891054719999999918e+02,-3.334974980018382666e+02
-1.997800770000000057e+02,-1.891054719999999918e+02,-3.325599980073529309e+02
-1.994187489999999912e+02,-1.887441440000000057e+02,-3.331849980036764691e+02
-1.997800770000000057e+02,-1.883828159999999912e+02,-3.325599980073529309e+02
-1.994187489999999912e+02,-1.883828159999999912e+02,-3.328724980055147284e+02
-1.997800770000000057e+02,-1.883828159999999912e+02,-3.319349980110293927e+02
-1.997800770000000057e+02,-1.876601599999999905e+02,-3.325599980073529309e+02
-1.994187489999999912e+02,-1.876601599999999905e+02,-3.328724980055147284e+02
-1.997800770000000057e+02,-1.876601599999999905e+02,-3.319349980110293927e+02
-1.994187489999999912e+02,-1.880214880000000051e+02,-3.225599980661764903e+02
-1.994187489999999912e+02,-1.876601599999999905e+02,-3.228724980643382310e+02
-1.994187489999999912e+02,-1.872988320000000044e+02,-3.325599980073529309e+02
-1.997800770000000057e+02,-1.869375039999999899e+02,-3.319349980110293927e+02
-1.994187489999999912e+02,-1.869375039999999899e+02,-3.322474980091911902e+02
-1.994187489999999912e+02,-1.869375039999999899e+02,-3.228724980643382310e+02
-1.994187489999999912e+02,-1.865761760000000038e+02,-3.319349980110293927e+02
-1.994187489999999912e+02,-1.862148479999999893e+02,-3.316224980128676521e+02
-1.994187489999999912e+02,-1.862148479999999893e+02,-3.228724980643382310e+02
-1.997800770000000057e+02,-1.854921919999999886e+02,-3.313099980147059114e+02
-1.994187489999999912e+02,-1.854921919999999886e+02,-3.316224980128676521e+02
-1.997800770000000057e+02,-1.854921919999999886e+02,-3.244349980551470480e+02
-1.994187489999999912e+02,-1.854921919999999886e+02,-3.228724980643382310e+02
-1.994187489999999912e+02,-1.851308640000000025e+02,-3.313099980147059114e+02
-1.994187489999999912e+02,-1.847695359999999880e+02,-3.309974980165441139e+02
-1.997800770000000057e+02,-1.847695359999999880e+02,-3.250599980514705862e+02
-1.994187489999999912e+02,-1.847695359999999880e+02,-3.247474980533088456e+02
-1.994187489999999912e+02,-1.851308640000000025e+02,-3.244349980551470480e+02
-1.997800770000000057e+02,-1.847695359999999880e+02,-3.238099980588235098e+02
-1.994187489999999912e+02,-1.847695359999999880e+02,-3.241224980569853074e+02
-1.994187489999999912e+02,-1.847695359999999880e+02,-3.234974980606617692e+02
-1.994187489999999912e+02,-1.851308640000000025e+02,-3.231849980625000285e+02
-1.994187489999999912e+02,-1.844082080000000019e+02,-3.306849980183823732e+02
-1.994187489999999912e+02,-1.840468799999999874e+02,-3.303724980202205757e+02
-1.997800770000000057e+02,-1.840468799999999874e+02,-3.256849980477941244e+02
-1.994187489999999912e+02,-1.840468799999999874e+02,-3.253724980496323838e+02
-1.994187489999999912e+02,-1.844082080000000019e+02,-3.250599980514705862e+02
-1.994187489999999912e+02,-1.844082080000000019e+02,-3.238099980588235098e+02
-1.994187489999999912e+02,-1.836855520000000013e+02,-3.300599980220588350e+02
-1.994187489999999912e+02,-1.836855520000000013e+02,-3.294349980257352968e+02
-1.997800770000000057e+02,-1.833242240000000152e+02,-3.288099980294117586e+02
-1.994187489999999912e+02,-1.836855520000000013e+02,-3.288099980294117586e+02
-1.994187489999999912e+02,-1.833242240000000152e+02,-3.284974980312500179e+02
-1.997800770000000057e+02,-1.833242240000000152e+02,-3.263099980441176626e+02
-1.997800770000000057e+02,-1.833242240000000152e+02,-3.256849980477941244e+02
-1.994187489999999912e+02,-1.833242240000000152e+02,-3.253724980496323838e+02
-1.997800770000000057e+02,-1.826015679999999861e+02,-3.281849980330882204e+02
-1.994187489999999912e+02,-1.829628960000000006e+02,-3.281849980330882204e+02
-1.994187489999999912e+02,-1.826015679999999861e+02,-3.278724980349264797e+02
-1.997800770000000057e+02,-1.826015679999999861e+02,-3.269349980404412008e+02
-1.994187489999999912e+02,-1.826015679999999861e+02,-3.266224980422794033e+02
-1.994187489999999912e+02,-1.829628960000000006e+02,-3.263099980441176626e+02
-1.994187489999999912e+02,-1.829628960000000006e+02,-3.256849980477941244e+02
-1.994187489999999912e+02,-1.822402400000000000e+02,-3.275599980367647390e+02
-1.994187489999999912e+02,-1.822402400000000000e+02,-3.269349980404412008e+02
-1.990574210000000051e+02,-1.970546879999999987e+02,-3.275599980367647390e+02
-1.990574210000000051e+02,-1.970546879999999987e+02,-3.244349980551470480e+02
-1.990574210000000051e+02,-1.970546879999999987e+02,-3.238099980588235098e+02
-1.990574210000000051e+02,-1.963320319999999981e+02,-3.281849980330882204e+02
-1.986960929999999905e+02,-1.963320319999999981e+02,-3.278724980349264797e+02
-1.986960929999999905e+02,-1.966933600000000126e+02,-3.275599980367647390e+02
-1.990574210000000051e+02,-1.963320319999999981e+02,-3.269349980404412008e+02
-1.986960929999999905e+02,-1.963320319999999981e+02,-3.272474980386029415e+02
-1.990574210000000051e+02,-1.963320319999999981e+02,-3.244349980551470480e+02
-1.990574210000000051e+02,-1.963320319999999981e+02,-3.238099980588235098e+02
-1.990574210000000051e+02,-1.956093759999999975e+02,-3.313099980147059114e+02
-1.986960929999999905e+02,-1.956093759999999975e+02,-3.316224980128676521e+02
-1.986960929999999905e+02,-1.959707040000000120e+02,-3.313099980147059114e+02
-1.986960929999999905e+02,-1.956093759999999975e+02,-3.309974980165441139e+02
-1.986960929999999905e+02,-1.956093759999999975e+02,-3.284974980312500179e+02
-1.986960929999999905e+02,-1.959707040000000120e+02,-3.281849980330882204e+02
-1.986960929999999905e+02,-1.959707040000000120e+02,-3.269349980404412008e+02
-1.986960929999999905e+02,-1.959707040000000120e+02,-3.263099980441176626e+02
-1.990574210000000051e+02,-1.956093759999999975e+02,-3.263099980441176626e+02
-1.986960929999999905e+02,-1.956093759999999975e+02,-3.259974980459558651e+02
-1.986960929999999905e+02,-1.956093759999999975e+02,-3.247474980533088456e+02
-1.986960929999999905e+02,-1.959707040000000120e+02,-3.244349980551470480e+02
-1.986960929999999905e+02,-1.959707040000000120e+02,-3.238099980588235098e+02
-1.990574210000000051e+02,-1.956093759999999975e+02,-3.231849980625000285e+02
-1.986960929999999905e+02,-1.956093759999999975e+02,-3.234974980606617692e+02
-1.986960929999999905e+02,-1.948867199999999968e+02,-3.316224980128676521e+02
-1.986960929999999905e+02,-1.952480480000000114e+02,-3.306849980183823732e+02
-1.986960929999999905e+02,-1.952480480000000114e+02,-3.300599980220588350e+02
-1.990574210000000051e+02,-1.948867199999999968e+02,-3.300599980220588350e+02
-1.986960929999999905e+02,-1.948867199999999968e+02,-3.297474980238970375e+02
-1.986960929999999905e+02,-1.948867199999999968e+02,-3.291224980275735561e+02
-1.986960929999999905e+02,-1.952480480000000114e+02,-3.288099980294117586e+02
-1.986960929999999905e+02,-1.952480480000000114e+02,-3.256849980477941244e+02
-1.990574210000000051e+02,-1.948867199999999968e+02,-3.256849980477941244e+02
-1.986960929999999905e+02,-1.948867199999999968e+02,-3.253724980496323838e+02
-1.990574210000000051e+02,-1.948867199999999968e+02,-3.250599980514705862e+02
-1.986960929999999905e+02,-1.948867199999999968e+02,-3.247474980533088456e+02
-1.986960929999999905e+02,-1.952480480000000114e+02,-3.231849980625000285e+02
-1.986960929999999905e+02,-1.948867199999999968e+02,-3.228724980643382310e+02
-1.986960929999999905e+02,-1.941640639999999962e+02,-3.334974980018382666e+02
-1.986960929999999905e+02,-1.945253920000000107e+02,-3.331849980036764691e+02
-1.986960929999999905e+02,-1.941640639999999962e+02,-3.328724980055147284e+02
-1.986960929999999905e+02,-1.941640639999999962e+02,-3.316224980128676521e+02
-1.986960929999999905e+02,-1.945253920000000107e+02,-3.294349980257352968e+02
-1.986960929999999905e+02,-1.945253920000000107e+02,-3.250599980514705862e+02
-1.986960929999999905e+02,-1.941640639999999962e+02,-3.228724980643382310e+02
-1.986960929999999905e+02,-1.934414079999999956e+02,-3.334974980018382666e+02
-1.986960929999999905e+02,-1.938027360000000101e+02,-3.325599980073529309e+02
-1.986960929999999905e+02,-1.938027360000000101e+02,-3.319349980110293927e+02
-1.986960929999999905e+02,-1.934414079999999956e+02,-3.228724980643382310e+02
-1.990574210000000051e+02,-1.927187519999999950e+02,-3.338099980000000073e+02
-1.986960929999999905e+02,-1.930800800000000095e+02,-3.338099980000000073e+02
-1.986960929999999905e+02,-1.930800800000000095e+02,-3.225599980661764903e+02
-1.990574210000000051e+02,-1.927187519999999950e+02,-3.225599980661764903e+02
-1.990574210000000051e+02,-1.905507839999999931e+02,-3.338099980000000073e+02
-1.990574210000000051e+02,-1.898281279999999924e+02,-3.338099980000000073e+02
-1.986960929999999905e+02,-1.894668000000000063e+02,-3.338099980000000073e+02
-1.986960929999999905e+02,-1.891054719999999918e+02,-3.334974980018382666e+02
-1.990574210000000051e+02,-1.883828159999999912e+02,-3.331849980036764691e+02
-1.986960929999999905e+02,-1.883828159999999912e+02,-3.334974980018382666e+02
-1.990574210000000051e+02,-1.883828159999999912e+02,-3.225599980661764903e+02
-1.986960929999999905e+02,-1.887441440000000057e+02,-3.225599980661764903e+02
-1.986960929999999905e+02,-1.883828159999999912e+02,-3.228724980643382310e+02
-1.986960929999999905e+02,-1.880214880000000051e+02,-3.331849980036764691e+02
-1.986960929999999905e+02,-1.876601599999999905e+02,-3.328724980055147284e+02
-1.986960929999999905e+02,-1.876601599999999905e+02,-3.228724980643382310e+02
-1.990574210000000051e+02,-1.869375039999999899e+02,-3.325599980073529309e+02
-1.986960929999999905e+02,-1.869375039999999899e+02,-3.328724980055147284e+02
-1.986960929999999905e+02,-1.869375039999999899e+02,-3.228724980643382310e+02
-1.986960929999999905e+02,-1.865761760000000038e+02,-3.325599980073529309e+02
-1.990574210000000051e+02,-1.862148479999999893e+02,-3.319349980110293927e+02
-1.986960929999999905e+02,-1.862148479999999893e+02,-3.322474980091911902e+02
-1.986960929999999905e+02,-1.862148479999999893e+02,-3.228724980643382310e+02
-1.986960929999999905e+02,-1.858535200000000032e+02,-3.319349980110293927e+02
-1.986960929999999905e+02,-1.854921919999999886e+02,-3.316224980128676521e+02
-1.986960929999999905e+02,-1.854921919999999886e+02,-3.228724980643382310e+02
-1.986960929999999905e+02,-1.851308640000000025e+02,-3.313099980147059114e+02
-1.986960929999999905e+02,-1.847695359999999880e+02,-3.309974980165441139e+02
-1.990574210000000051e+02,-1.847695359999999880e+02,-3.244349980551470480e+02
-1.986960929999999905e+02,-1.851308640000000025e+02,-3.231849980625000285e+02
-1.986960929999999905e+02,-1.847695359999999880e+02,-3.234974980606617692e+02
-1.986960929999999905e+02,-1.844082080000000019e+02,-3.306849980183823732e+02
-1.990574210000000051e+02,-1.840468799999999874e+02,-3.300599980220588350e+02
-1.986960929999999905e+02,-1.844082080000000019e+02,-3.300599980220588350e+02
-1.986960929999999905e+02,-1.840468799999999874e+02,-3.297474980238970375e+02
-1.990574210000000051e+02,-1.840468799999999874e+02,-3.250599980514705862e+02
-1.990574210000000051e+02,-1.840468799999999874e+02,-3.244349980551470480e+02
-1.990574210000000051e+02,-1.840468799999999874e+02,-3.238099980588235098e+02
-1.986960929999999905e+02,-1.840468799999999874e+02,-3.234974980606617692e+02
-1.986960929999999905e+02,-1.836855520000000013e+02,-3.294349980257352968e+02
-1.986960929999999905e+02,-1.836855520000000013e+02,-3.288099980294117586e+02
-1.986960929999999905e+02,-1.833242240000000152e+02,-3.284974980312500179e+02
-1.990574210000000051e+02,-1.833242240000000152e+02,-3.250599980514705862e+02
-1.990574210000000051e+02,-1.833242240000000152e+02,-3.244349980551470480e+02
-1.986960929999999905e+02,-1.833242240000000152e+02,-3.241224980569853074e+02
-1.986960929999999905e+02,-1.836855520000000013e+02,-3.238099980588235098e+02
-1.986960929999999905e+02,-1.829628960000000006e+02,-3.281849980330882204e+02
-1.986960929999999905e+02,-1.826015679999999861e+02,-3.278724980349264797e+02
-1.990574210000000051e+02,-1.826015679999999861e+02,-3.263099980441176626e+02
-1.990574210000000051e+02,-1.826015679999999861e+02,-3.256849980477941244e+02
-1.986960929999999905e+02,-1.826015679999999861e+02,-3.253724980496323838e+02
-1.986960929999999905e+02,-1.829628960000000006e+02,-3.250599980514705862e+02
-1.986960929999999905e+02,-1.829628960000000006e+02,-3.244349980551470480e+02
-1.986960929999999905e+02,-1.822402400000000000e+02,-3.275599980367647390e+02
-1.986960929999999905e+02,-1.822402400000000000e+02,-3.269349980404412008e+02
-1.986960929999999905e+02,-1.822402400000000000e+02,-3.263099980441176626e+02
-1.986960929999999905e+02,-1.822402400000000000e+02,-3.256849980477941244e+02
-1.983347650000000044e+02,-1.963320319999999981e+02,-3.275599980367647390e+02
-1.983347650000000044e+02,-1.956093759999999975e+02,-3.313099980147059114e+02
-1.983347650000000044e+02,-1.956093759999999975e+02,-3.281849980330882204e+02
-1.983347650000000044e+02,-1.956093759999999975e+02,-3.275599980367647390e+02
-1.983347650000000044e+02,-1.956093759999999975e+02,-3.269349980404412008e+02
-1.983347650000000044e+02,-1.956093759999999975e+02,-3.263099980441176626e+02
-1.983347650000000044e+02,-1.956093759999999975e+02,-3.244349980551470480e+02
-1.983347650000000044e+02,-1.956093759999999975e+02,-3.238099980588235098e+02
-1.979734369999999899e+02,-1.948867199999999968e+02,-3.316224980128676521e+02
-1.979734369999999899e+02,-1.952480480000000114e+02,-3.313099980147059114e+02
-1.979734369999999899e+02,-1.952480480000000114e+02,-3.306849980183823732e+02
-1.983347650000000044e+02,-1.948867199999999968e+02,-3.300599980220588350e+02
-1.979734369999999899e+02,-1.948867199999999968e+02,-3.303724980202205757e+02
-1.983347650000000044e+02,-1.948867199999999968e+02,-3.288099980294117586e+02
-1.979734369999999899e+02,-1.948867199999999968e+02,-3.284974980312500179e+02
-1.979734369999999899e+02,-1.952480480000000114e+02,-3.281849980330882204e+02
-1.979734369999999899e+02,-1.952480480000000114e+02,-3.275599980367647390e+02
-1.979734369999999899e+02,-1.952480480000000114e+02,-3.269349980404412008e+02
-1.979734369999999899e+02,-1.952480480000000114e+02,-3.263099980441176626e+02
-1.979734369999999899e+02,-1.952480480000000114e+02,-3.256849980477941244e+02
-1.979734369999999899e+02,-1.952480480000000114e+02,-3.250599980514705862e+02
-1.983347650000000044e+02,-1.948867199999999968e+02,-3.250599980514705862e+02
-1.979734369999999899e+02,-1.952480480000000114e+02,-3.244349980551470480e+02
-1.979734369999999899e+02,-1.952480480000000114e+02,-3.238099980588235098e+02
-1.983347650000000044e+02,-1.948867199999999968e+02,-3.231849980625000285e+02
-1.979734369999999899e+02,-1.948867199999999968e+02,-3.234974980606617692e+02
-1.983347650000000044e+02,-1.941640639999999962e+02,-3.331849980036764691e+02
-1.979734369999999899e+02,-1.941640639999999962e+02,-3.316224980128676521e+02
-1.979734369999999899e+02,-1.945253920000000107e+02,-3.300599980220588350e+02
-1.979734369999999899e+02,-1.945253920000000107e+02,-3.294349980257352968e+02
-1.979734369999999899e+02,-1.945253920000000107e+02,-3.288099980294117586e+02
-1.979734369999999899e+02,-1.945253920000000107e+02,-3.231849980625000285e+02
-1.979734369999999899e+02,-1.941640639999999962e+02,-3.228724980643382310e+02
-1.979734369999999899e+02,-1.934414079999999956e+02,-3.334974980018382666e+02
-1.979734369999999899e+02,-1.938027360000000101e+02,-3.331849980036764691e+02
-1.979734369999999899e+02,-1.938027360000000101e+02,-3.325599980073529309e+02
-1.979734369999999899e+02,-1.938027360000000101e+02,-3.319349980110293927e+02
-1.979734369999999899e+02,-1.934414079999999956e+02,-3.228724980643382310e+02
-1.979734369999999899e+02,-1.930800800000000095e+02,-3.338099980000000073e+02
-1.983347650000000044e+02,-1.927187519999999950e+02,-3.225599980661764903e+02
-1.979734369999999899e+02,-1.927187519999999950e+02,-3.228724980643382310e+02
-1.979734369999999899e+02,-1.923574240000000088e+02,-3.225599980661764903e+02
-1.983347650000000044e+02,-1.891054719999999918e+02,-3.338099980000000073e+02
-1.979734369999999899e+02,-1.887441440000000057e+02,-3.338099980000000073e+02
-1.979734369999999899e+02,-1.883828159999999912e+02,-3.334974980018382666e+02
-1.983347650000000044e+02,-1.883828159999999912e+02,-3.225599980661764903e+02
-1.983347650000000044e+02,-1.876601599999999905e+02,-3.331849980036764691e+02
-1.979734369999999899e+02,-1.876601599999999905e+02,-3.334974980018382666e+02
-1.979734369999999899e+02,-1.880214880000000051e+02,-3.225599980661764903e+02
-1.979734369999999899e+02,-1.876601599999999905e+02,-3.228724980643382310e+02
-1.983347650000000044e+02,-1.869375039999999899e+02,-3.331849980036764691e+02
-1.979734369999999899e+02,-1.869375039999999899e+02,-3.334974980018382666e+02
-1.979734369999999899e+02,-1.869375039999999899e+02,-3.228724980643382310e+02
-1.979734369999999899e+02,-1.865761760000000038e+02,-3.331849980036764691e+02
-1.983347650000000044e+02,-1.862148479999999893e+02,-3.325599980073529309e+02
-1.979734369999999899e+02,-1.862148479999999893e+02,-3.328724980055147284e+02
-1.979734369999999899e+02,-1.862148479999999893e+02,-3.228724980643382310e+02
-1.979734369999999899e+02,-1.858535200000000032e+02,-3.325599980073529309e+02
-1.983347650000000044e+02,-1.854921919999999886e+02,-3.319349980110293927e+02
-1.979734369999999899e+02,-1.854921919999999886e+02,-3.322474980091911902e+02
-1.979734369999999899e+02,-1.854921919999999886e+02,-3.228724980643382310e+02
-1.979734369999999899e+02,-1.851308640000000025e+02,-3.319349980110293927e+02
-1.979734369999999899e+02,-1.851308640000000025e+02,-3.313099980147059114e+02
-1.979734369999999899e+02,-1.847695359999999880e+02,-3.309974980165441139e+02
-1.983347650000000044e+02,-1.847695359999999880e+02,-3.231849980625000285e+02
-1.979734369999999899e+02,-1.847695359999999880e+02,-3.228724980643382310e+02
-1.979734369999999899e+02,-1.844082080000000019e+02,-3.306849980183823732e+02
-1.983347650000000044e+02,-1.840468799999999874e+02,-3.300599980220588350e+02
-1.979734369999999899e+02,-1.840468799999999874e+02,-3.303724980202205757e+02
-1.979734369999999899e+02,-1.844082080000000019e+02,-3.231849980625000285e+02
-1.979734369999999899e+02,-1.840468799999999874e+02,-3.234974980606617692e+02
-1.979734369999999899e+02,-1.836855520000000013e+02,-3.300599980220588350e+02
-1.983347650000000044e+02,-1.833242240000000152e+02,-3.294349980257352968e+02
-1.979734369999999899e+02,-1.833242240000000152e+02,-3.297474980238970375e+02
-1.983347650000000044e+02,-1.833242240000000152e+02,-3.288099980294117586e+02
-1.983347650000000044e+02,-1.833242240000000152e+02,-3.238099980588235098e+02
-1.979734369999999899e+02,-1.833242240000000152e+02,-3.234974980606617692e+02
-1.979734369999999899e+02,-1.829628960000000006e+02,-3.294349980257352968e+02
-1.979734369999999899e+02,-1.829628960000000006e+02,-3.288099980294117586e+02
-1.983347650000000044e+02,-1.826015679999999861e+02,-3.281849980330882204e+02
-1.979734369999999899e+02,-1.826015679999999861e+02,-3.284974980312500179e+02
-1.983347650000000044e+02,-1.826015679999999861e+02,-3.250599980514705862e+02
-1.983347650000000044e+02,-1.826015679999999861e+02,-3.244349980551470480e+02
-1.979734369999999899e+02,-1.826015679999999861e+02,-3.241224980569853074e+02
-1.979734369999999899e+02,-1.829628960000000006e+02,-3.238099980588235098e+02
-1.979734369999999899e+02,-1.822402400000000000e+02,-3.281849980330882204e+02
-1.979734369999999899e+02,-1.822402400000000000e+02,-3.275599980367647390e+02
-1.983347650000000044e+02,-1.818789120000000139e+02,-3.269349980404412008e+02
-1.979734369999999899e+02,-1.818789120000000139e+02,-3.272474980386029415e+02
-1.979734369999999899e+02,-1.818789120000000139e+02,-3.266224980422794033e+02
-1.979734369999999899e+02,-1.822402400000000000e+02,-3.263099980441176626e+02
-1.983347650000000044e+02,-1.818789120000000139e+02,-3.256849980477941244e+02
-1.979734369999999899e+02,-1.818789120000000139e+02,-3.259974980459558651e+02
-1.979734369999999899e+02,-1.818789120000000139e+02,-3.253724980496323838e+02
-1.979734369999999899e+02,-1.822402400000000000e+02,-3.250599980514705862e+02
-1.979734369999999899e+02,-1.822402400000000000e+02,-3.244349980551470480e+02
-1.979734369999999899e+02,-1.815175839999999994e+02,-3.269349980404412008e+02
-1.979734369999999899e+02,-1.815175839999999994e+02,-3.256849980477941244e+02
-1.976121090000000038e+02,-1.956093759999999975e+02,-3.269349980404412008e+02
-1.972507809999999893e+02,-1.956093759999999975e+02,-3.272474980386029415e+02
-1.972507809999999893e+02,-1.959707040000000120e+02,-3.269349980404412008e+02
-1.972507809999999893e+02,-1.959707040000000120e+02,-3.263099980441176626e+02
-1.976121090000000038e+02,-1.956093759999999975e+02,-3.263099980441176626e+02
-1.972507809999999893e+02,-1.959707040000000120e+02,-3.256849980477941244e+02
-1.976121090000000038e+02,-1.956093759999999975e+02,-3.256849980477941244e+02
-1.972507809999999893e+02,-1.959707040000000120e+02,-3.250599980514705862e+02
-1.976121090000000038e+02,-1.956093759999999975e+02,-3.250599980514705862e+02
-1.972507809999999893e+02,-1.956093759999999975e+02,-3.247474980533088456e+02
-1.976121090000000038e+02,-1.948867199999999968e+02,-3.313099980147059114e+02
-1.972507809999999893e+02,-1.948867199999999968e+02,-3.309974980165441139e+02
-1.972507809999999893e+02,-1.952480480000000114e+02,-3.306849980183823732e+02
-1.972507809999999893e+02,-1.948867199999999968e+02,-3.303724980202205757e+02
-1.976121090000000038e+02,-1.948867199999999968e+02,-3.281849980330882204e+02
-1.976121090000000038e+02,-1.948867199999999968e+02,-3.275599980367647390e+02
-1.972507809999999893e+02,-1.948867199999999968e+02,-3.272474980386029415e+02
-1.972507809999999893e+02,-1.952480480000000114e+02,-3.244349980551470480e+02
-1.972507809999999893e+02,-1.952480480000000114e+02,-3.238099980588235098e+02
-1.972507809999999893e+02,-1.952480480000000114e+02,-3.231849980625000285e+02
-1.976121090000000038e+02,-1.948867199999999968e+02,-3.231849980625000285e+02
-1.972507809999999893e+02,-1.948867199999999968e+02,-3.228724980643382310e+02
-1.972507809999999893e+02,-1.941640639999999962e+02,-3.316224980128676521e+02
-1.972507809999999893e+02,-1.945253920000000107e+02,-3.313099980147059114e+02
-1.976121090000000038e+02,-1.941640639999999962e+02,-3.300599980220588350e+02
-1.972507809999999893e+02,-1.941640639999999962e+02,-3.303724980202205757e+02
-1.972507809999999893e+02,-1.941640639999999962e+02,-3.297474980238970375e+02
-1.972507809999999893e+02,-1.945253920000000107e+02,-3.294349980257352968e+02
-1.972507809999999893e+02,-1.945253920000000107e+02,-3.288099980294117586e+02
-1.972507809999999893e+02,-1.945253920000000107e+02,-3.281849980330882204e+02
-1.972507809999999893e+02,-1.945253920000000107e+02,-3.275599980367647390e+02
-1.972507809999999893e+02,-1.941640639999999962e+02,-3.228724980643382310e+02
-1.976121090000000038e+02,-1.934414079999999956e+02,-3.331849980036764691e+02
-1.972507809999999893e+02,-1.934414079999999956e+02,-3.328724980055147284e+02
-1.972507809999999893e+02,-1.938027360000000101e+02,-3.325599980073529309e+02
-1.972507809999999893e+02,-1.938027360000000101e+02,-3.319349980110293927e+02
-1.972507809999999893e+02,-1.938027360000000101e+02,-3.300599980220588350e+02
-1.972507809999999893e+02,-1.934414079999999956e+02,-3.228724980643382310e+02
-1.976121090000000038e+02,-1.927187519999999950e+02,-3.338099980000000073e+02
-1.972507809999999893e+02,-1.927187519999999950e+02,-3.334974980018382666e+02
-1.972507809999999893e+02,-1.930800800000000095e+02,-3.331849980036764691e+02
-1.972507809999999893e+02,-1.927187519999999950e+02,-3.228724980643382310e+02
-1.972507809999999893e+02,-1.923574240000000088e+02,-3.338099980000000073e+02
-1.976121090000000038e+02,-1.919960959999999943e+02,-3.225599980661764903e+02
-1.972507809999999893e+02,-1.919960959999999943e+02,-3.228724980643382310e+02
-1.972507809999999893e+02,-1.916347680000000082e+02,-3.225599980661764903e+02
-1.972507809999999893e+02,-1.887441440000000057e+02,-3.338099980000000073e+02
-1.972507809999999893e+02,-1.883828159999999912e+02,-3.334974980018382666e+02
-1.972507809999999893e+02,-1.876601599999999905e+02,-3.334974980018382666e+02
-1.976121090000000038e+02,-1.876601599999999905e+02,-3.225599980661764903e+02
-1.972507809999999893e+02,-1.869375039999999899e+02,-3.334974980018382666e+02
-1.976121090000000038e+02,-1.869375039999999899e+02,-3.225599980661764903e+02
-1.976121090000000038e+02,-1.862148479999999893e+02,-3.331849980036764691e+02
-1.972507809999999893e+02,-1.862148479999999893e+02,-3.334974980018382666e+02
-1.976121090000000038e+02,-1.862148479999999893e+02,-3.225599980661764903e+02
-1.972507809999999893e+02,-1.858535200000000032e+02,-3.331849980036764691e+02
-1.976121090000000038e+02,-1.854921919999999886e+02,-3.325599980073529309e+02
-1.972507809999999893e+02,-1.854921919999999886e+02,-3.328724980055147284e+02
-1.972507809999999893e+02,-1.858535200000000032e+02,-3.225599980661764903e+02
-1.972507809999999893e+02,-1.854921919999999886e+02,-3.228724980643382310e+02
-1.972507809999999893e+02,-1.851308640000000025e+02,-3.325599980073529309e+02
-1.972507809999999893e+02,-1.851308640000000025e+02,-3.319349980110293927e+02
-1.972507809999999893e+02,-1.851308640000000025e+02,-3.313099980147059114e+02
-1.972507809999999893e+02,-1.847695359999999880e+02,-3.309974980165441139e+02
-1.972507809999999893e+02,-1.847695359999999880e+02,-3.228724980643382310e+02
-1.972507809999999893e+02,-1.844082080000000019e+02,-3.306849980183823732e+02
-1.972507809999999893e+02,-1.840468799999999874e+02,-3.303724980202205757e+02
-1.972507809999999893e+02,-1.844082080000000019e+02,-3.231849980625000285e+02
-1.972507809999999893e+02,-1.840468799999999874e+02,-3.234974980606617692e+02
-1.972507809999999893e+02,-1.836855520000000013e+02,-3.300599980220588350e+02
-1.972507809999999893e+02,-1.833242240000000152e+02,-3.297474980238970375e+02
-1.972507809999999893e+02,-1.833242240000000152e+02,-3.234974980606617692e+02
-1.972507809999999893e+02,-1.829628960000000006e+02,-3.294349980257352968e+02
-1.972507809999999893e+02,-1.829628960000000006e+02,-3.288099980294117586e+02
-1.976121090000000038e+02,-1.826015679999999861e+02,-3.281849980330882204e+02
-1.972507809999999893e+02,-1.829628960000000006e+02,-3.281849980330882204e+02
-1.972507809999999893e+02,-1.826015679999999861e+02,-3.278724980349264797e+02
-1.976121090000000038e+02,-1.826015679999999861e+02,-3.238099980588235098e+02
-1.972507809999999893e+02,-1.826015679999999861e+02,-3.234974980606617692e+02
-1.972507809999999893e+02,-1.818789120000000139e+02,-3.278724980349264797e+02
-1.976121090000000038e+02,-1.818789120000000139e+02,-3.275599980367647390e+02
-1.972507809999999893e+02,-1.822402400000000000e+02,-3.263099980441176626e+02
-1.972507809999999893e+02,-1.818789120000000139e+02,-3.266224980422794033e+02
-1.972507809999999893e+02,-1.818789120000000139e+02,-3.259974980459558651e+02
-1.976121090000000038e+02,-1.818789120000000139e+02,-3.250599980514705862e+02
-1.976121090000000038e+02,-1.818789120000000139e+02,-3.244349980551470480e+02
-1.972507809999999893e+02,-1.818789120000000139e+02,-3.241224980569853074e+02
-1.972507809999999893e+02,-1.822402400000000000e+02,-3.238099980588235098e+02
-1.972507809999999893e+02,-1.815175839999999994e+02,-3.275599980367647390e+02
-1.972507809999999893e+02,-1.815175839999999994e+02,-3.269349980404412008e+02
-1.976121090000000038e+02,-1.811562559999999849e+02,-3.256849980477941244e+02
-1.972507809999999893e+02,-1.811562559999999849e+02,-3.259974980459558651e+02
-1.972507809999999893e+02,-1.811562559999999849e+02,-3.253724980496323838e+02
-1.972507809999999893e+02,-1.815175839999999994e+02,-3.250599980514705862e+02
-1.972507809999999893e+02,-1.815175839999999994e+02,-3.244349980551470480e+02
-1.972507809999999893e+02,-1.807949279999999987e+02,-3.256849980477941244e+02
-1.968894530000000032e+02,-1.956093759999999975e+02,-3.269349980404412008e+02
-1.968894530000000032e+02,-1.956093759999999975e+02,-3.263099980441176626e+02
-1.965281249999999886e+02,-1.956093759999999975e+02,-3.259974980459558651e+02
-1.965281249999999886e+02,-1.959707040000000120e+02,-3.256849980477941244e+02
-1.965281249999999886e+02,-1.959707040000000120e+02,-3.250599980514705862e+02
-1.965281249999999886e+02,-1.956093759999999975e+02,-3.247474980533088456e+02
-1.965281249999999886e+02,-1.948867199999999968e+02,-3.309974980165441139e+02
-1.965281249999999886e+02,-1.952480480000000114e+02,-3.306849980183823732e+02
-1.965281249999999886e+02,-1.948867199999999968e+02,-3.303724980202205757e+02
-1.968894530000000032e+02,-1.948867199999999968e+02,-3.281849980330882204e+02
-1.965281249999999886e+02,-1.948867199999999968e+02,-3.284974980312500179e+02
-1.965281249999999886e+02,-1.952480480000000114e+02,-3.281849980330882204e+02
-1.965281249999999886e+02,-1.952480480000000114e+02,-3.275599980367647390e+02
-1.968894530000000032e+02,-1.948867199999999968e+02,-3.275599980367647390e+02
-1.965281249999999886e+02,-1.952480480000000114e+02,-3.269349980404412008e+02
-1.965281249999999886e+02,-1.952480480000000114e+02,-3.263099980441176626e+02
-1.965281249999999886e+02,-1.952480480000000114e+02,-3.244349980551470480e+02
-1.965281249999999886e+02,-1.952480480000000114e+02,-3.238099980588235098e+02
-1.968894530000000032e+02,-1.948867199999999968e+02,-3.231849980625000285e+02
-1.965281249999999886e+02,-1.948867199999999968e+02,-3.234974980606617692e+02
-1.965281249999999886e+02,-1.941640639999999962e+02,-3.316224980128676521e+02
-1.965281249999999886e+02,-1.945253920000000107e+02,-3.313099980147059114e+02
-1.965281249999999886e+02,-1.945253920000000107e+02,-3.300599980220588350e+02
-1.968894530000000032e+02,-1.941640639999999962e+02,-3.300599980220588350e+02
-1.965281249999999886e+02,-1.941640639999999962e+02,-3.297474980238970375e+02
-1.968894530000000032e+02,-1.941640639999999962e+02,-3.294349980257352968e+02
-1.965281249999999886e+02,-1.941640639999999962e+02,-3.291224980275735561e+02
-1.965281249999999886e+02,-1.945253920000000107e+02,-3.288099980294117586e+02
-1.965281249999999886e+02,-1.945253920000000107e+02,-3.231849980625000285e+02
-1.965281249999999886e+02,-1.941640639999999962e+02,-3.228724980643382310e+02
-1.965281249999999886e+02,-1.934414079999999956e+02,-3.328724980055147284e+02
-1.965281249999999886e+02,-1.938027360000000101e+02,-3.325599980073529309e+02
-1.965281249999999886e+02,-1.938027360000000101e+02,-3.319349980110293927e+02
-1.965281249999999886e+02,-1.938027360000000101e+02,-3.294349980257352968e+02
-1.965281249999999886e+02,-1.934414079999999956e+02,-3.228724980643382310e+02
-1.968894530000000032e+02,-1.927187519999999950e+02,-3.331849980036764691e+02
-1.965281249999999886e+02,-1.927187519999999950e+02,-3.328724980055147284e+02
-1.965281249999999886e+02,-1.927187519999999950e+02,-3.228724980643382310e+02
-1.968894530000000032e+02,-1.919960959999999943e+02,-3.338099980000000073e+02
-1.965281249999999886e+02,-1.919960959999999943e+02,-3.334974980018382666e+02
-1.965281249999999886e+02,-1.923574240000000088e+02,-3.331849980036764691e+02
-1.965281249999999886e+02,-1.923574240000000088e+02,-3.225599980661764903e+02
-1.968894530000000032e+02,-1.919960959999999943e+02,-3.225599980661764903e+02
-1.965281249999999886e+02,-1.912734399999999937e+02,-3.334974980018382666e+02
-1.968894530000000032e+02,-1.912734399999999937e+02,-3.338099980000000073e+02
-1.965281249999999886e+02,-1.905507839999999931e+02,-3.334974980018382666e+02
-1.968894530000000032e+02,-1.905507839999999931e+02,-3.338099980000000073e+02
-1.965281249999999886e+02,-1.898281279999999924e+02,-3.334974980018382666e+02
-1.968894530000000032e+02,-1.898281279999999924e+02,-3.338099980000000073e+02
-1.965281249999999886e+02,-1.891054719999999918e+02,-3.334974980018382666e+02
-1.968894530000000032e+02,-1.891054719999999918e+02,-3.338099980000000073e+02
-1.965281249999999886e+02,-1.883828159999999912e+02,-3.334974980018382666e+02
-1.965281249999999886e+02,-1.876601599999999905e+02,-3.334974980018382666e+02
-1.965281249999999886e+02,-1.869375039999999899e+02,-3.334974980018382666e+02
-1.965281249999999886e+02,-1.862148479999999893e+02,-3.334974980018382666e+02
-1.965281249999999886e+02,-1.858535200000000032e+02,-3.331849980036764691e+02
-1.965281249999999886e+02,-1.854921919999999886e+02,-3.328724980055147284e+02
-1.968894530000000032e+02,-1.854921919999999886e+02,-3.225599980661764903e+02
-1.968894530000000032e+02,-1.847695359999999880e+02,-3.325599980073529309e+02
-1.965281249999999886e+02,-1.847695359999999880e+02,-3.328724980055147284e+02
-1.965281249999999886e+02,-1.847695359999999880e+02,-3.322474980091911902e+02
-1.965281249999999886e+02,-1.851308640000000025e+02,-3.319349980110293927e+02
-1.965281249999999886e+02,-1.851308640000000025e+02,-3.313099980147059114e+02
-1.965281249999999886e+02,-1.847695359999999880e+02,-3.309974980165441139e+02
-1.968894530000000032e+02,-1.847695359999999880e+02,-3.225599980661764903e+02
-1.965281249999999886e+02,-1.844082080000000019e+02,-3.325599980073529309e+02
-1.965281249999999886e+02,-1.844082080000000019e+02,-3.306849980183823732e+02
-1.965281249999999886e+02,-1.840468799999999874e+02,-3.303724980202205757e+02
-1.968894530000000032e+02,-1.840468799999999874e+02,-3.231849980625000285e+02
-1.968894530000000032e+02,-1.840468799999999874e+02,-3.225599980661764903e+02
-1.968894530000000032e+02,-1.833242240000000152e+02,-3.300599980220588350e+02
-1.965281249999999886e+02,-1.833242240000000152e+02,-3.303724980202205757e+02
-1.965281249999999886e+02,-1.836855520000000013e+02,-3.294349980257352968e+02
-1.965281249999999886e+02,-1.833242240000000152e+02,-3.297474980238970375e+02
-1.968894530000000032e+02,-1.833242240000000152e+02,-3.294349980257352968e+02
-1.968894530000000032e+02,-1.833242240000000152e+02,-3.288099980294117586e+02
-1.965281249999999886e+02,-1.836855520000000013e+02,-3.288099980294117586e+02
-1.965281249999999886e+02,-1.833242240000000152e+02,-3.284974980312500179e+02
-1.965281249999999886e+02,-1.836855520000000013e+02,-3.231849980625000285e+02
-1.965281249999999886e+02,-1.833242240000000152e+02,-3.234974980606617692e+02
-1.965281249999999886e+02,-1.836855520000000013e+02,-3.225599980661764903e+02
-1.965281249999999886e+02,-1.829628960000000006e+02,-3.300599980220588350e+02
-1.965281249999999886e+02,-1.829628960000000006e+02,-3.281849980330882204e+02
-1.965281249999999886e+02,-1.826015679999999861e+02,-3.278724980349264797e+02
-1.968894530000000032e+02,-1.826015679999999861e+02,-3.238099980588235098e+02
-1.965281249999999886e+02,-1.829628960000000006e+02,-3.238099980588235098e+02
-1.965281249999999886e+02,-1.826015679999999861e+02,-3.241224980569853074e+02
-1.965281249999999886e+02,-1.822402400000000000e+02,-3.275599980367647390e+02
-1.968894530000000032e+02,-1.818789120000000139e+02,-3.275599980367647390e+02
-1.965281249999999886e+02,-1.818789120000000139e+02,-3.272474980386029415e+02
-1.965281249999999886e+02,-1.822402400000000000e+02,-3.263099980441176626e+02
-1.965281249999999886e+02,-1.818789120000000139e+02,-3.266224980422794033e+02
-1.965281249999999886e+02,-1.818789120000000139e+02,-3.259974980459558651e+02
-1.965281249999999886e+02,-1.818789120000000139e+02,-3.241224980569853074e+02
-1.965281249999999886e+02,-1.815175839999999994e+02,-3.269349980404412008e+02
-1.965281249999999886e+02,-1.811562559999999849e+02,-3.259974980459558651e+02
-1.965281249999999886e+02,-1.815175839999999994e+02,-3.250599980514705862e+02
-1.965281249999999886e+02,-1.811562559999999849e+02,-3.253724980496323838e+02
-1.968894530000000032e+02,-1.811562559999999849e+02,-3.244349980551470480e+02
-1.965281249999999886e+02,-1.811562559999999849e+02,-3.247474980533088456e+02
-1.965281249999999886e+02,-1.811562559999999849e+02,-3.241224980569853074e+02
-1.965281249999999886e+02,-1.807949279999999987e+02,-3.256849980477941244e+02
-1.965281249999999886e+02,-1.807949279999999987e+02,-3.244349980551470480e+02
-1.961667970000000025e+02,-1.963320319999999981e+02,-3.256849980477941244e+02
-1.958054689999999880e+02,-1.963320319999999981e+02,-3.259974980459558651e+02
-1.958054689999999880e+02,-1.966933600000000126e+02,-3.256849980477941244e+02
-1.958054689999999880e+02,-1.963320319999999981e+02,-3.253724980496323838e+02
-1.958054689999999880e+02,-1.956093759999999975e+02,-3.259974980459558651e+02
-1.958054689999999880e+02,-1.959707040000000120e+02,-3.250599980514705862e+02
-1.958054689999999880e+02,-1.956093759999999975e+02,-3.247474980533088456e+02
-1.961667970000000025e+02,-1.948867199999999968e+02,-3.313099980147059114e+02
-1.958054689999999880e+02,-1.948867199999999968e+02,-3.316224980128676521e+02
-1.958054689999999880e+02,-1.952480480000000114e+02,-3.313099980147059114e+02
-1.958054689999999880e+02,-1.952480480000000114e+02,-3.306849980183823732e+02
-1.958054689999999880e+02,-1.952480480000000114e+02,-3.300599980220588350e+02
-1.961667970000000025e+02,-1.948867199999999968e+02,-3.300599980220588350e+02
-1.958054689999999880e+02,-1.948867199999999968e+02,-3.297474980238970375e+02
-1.961667970000000025e+02,-1.948867199999999968e+02,-3.281849980330882204e+02
-1.961667970000000025e+02,-1.948867199999999968e+02,-3.275599980367647390e+02
-1.961667970000000025e+02,-1.948867199999999968e+02,-3.269349980404412008e+02
-1.961667970000000025e+02,-1.948867199999999968e+02,-3.263099980441176626e+02
-1.958054689999999880e+02,-1.948867199999999968e+02,-3.259974980459558651e+02
-1.958054689999999880e+02,-1.952480480000000114e+02,-3.244349980551470480e+02
-1.961667970000000025e+02,-1.948867199999999968e+02,-3.238099980588235098e+02
-1.958054689999999880e+02,-1.948867199999999968e+02,-3.241224980569853074e+02
-1.958054689999999880e+02,-1.941640639999999962e+02,-3.316224980128676521e+02
-1.958054689999999880e+02,-1.945253920000000107e+02,-3.294349980257352968e+02
-1.961667970000000025e+02,-1.941640639999999962e+02,-3.294349980257352968e+02
-1.958054689999999880e+02,-1.945253920000000107e+02,-3.288099980294117586e+02
-1.958054689999999880e+02,-1.945253920000000107e+02,-3.281849980330882204e+02
-1.958054689999999880e+02,-1.945253920000000107e+02,-3.275599980367647390e+02
-1.958054689999999880e+02,-1.945253920000000107e+02,-3.269349980404412008e+02
-1.958054689999999880e+02,-1.945253920000000107e+02,-3.263099980441176626e+02
-1.958054689999999880e+02,-1.945253920000000107e+02,-3.238099980588235098e+02
-1.961667970000000025e+02,-1.941640639999999962e+02,-3.231849980625000285e+02
-1.958054689999999880e+02,-1.941640639999999962e+02,-3.234974980606617692e+02
-1.958054689999999880e+02,-1.934414079999999956e+02,-3.328724980055147284e+02
-1.958054689999999880e+02,-1.938027360000000101e+02,-3.325599980073529309e+02
-1.958054689999999880e+02,-1.938027360000000101e+02,-3.319349980110293927e+02
-1.958054689999999880e+02,-1.938027360000000101e+02,-3.231849980625000285e+02
-1.958054689999999880e+02,-1.934414079999999956e+02,-3.228724980643382310e+02
-1.958054689999999880e+02,-1.927187519999999950e+02,-3.328724980055147284e+02
-1.958054689999999880e+02,-1.927187519999999950e+02,-3.228724980643382310e+02
-1.961667970000000025e+02,-1.919960959999999943e+02,-3.331849980036764691e+02
-1.958054689999999880e+02,-1.919960959999999943e+02,-3.328724980055147284e+02
-1.961667970000000025e+02,-1.919960959999999943e+02,-3.225599980661764903e+02
-1.958054689999999880e+02,-1.919960959999999943e+02,-3.228724980643382310e+02
-1.961667970000000025e+02,-1.912734399999999937e+02,-3.331849980036764691e+02
-1.958054689999999880e+02,-1.912734399999999937e+02,-3.328724980055147284e+02
-1.958054689999999880e+02,-1.916347680000000082e+02,-3.225599980661764903e+02
-1.961667970000000025e+02,-1.905507839999999931e+02,-3.331849980036764691e+02
-1.958054689999999880e+02,-1.905507839999999931e+02,-3.328724980055147284e+02
-1.961667970000000025e+02,-1.898281279999999924e+02,-3.331849980036764691e+02
-1.958054689999999880e+02,-1.898281279999999924e+02,-3.328724980055147284e+02
-1.961667970000000025e+02,-1.891054719999999918e+02,-3.331849980036764691e+02
-1.958054689999999880e+02,-1.891054719999999918e+02,-3.328724980055147284e+02
-1.961667970000000025e+02,-1.883828159999999912e+02,-3.331849980036764691e+02
-1.958054689999999880e+02,-1.883828159999999912e+02,-3.328724980055147284e+02
-1.958054689999999880e+02,-1.876601599999999905e+02,-3.334974980018382666e+02
-1.958054689999999880e+02,-1.880214880000000051e+02,-3.331849980036764691e+02
-1.958054689999999880e+02,-1.869375039999999899e+02,-3.334974980018382666e+02
-1.958054689999999880e+02,-1.862148479999999893e+02,-3.334974980018382666e+02
-1.958054689999999880e+02,-1.858535200000000032e+02,-3.331849980036764691e+02
-1.958054689999999880e+02,-1.854921919999999886e+02,-3.328724980055147284e+02
-1.958054689999999880e+02,-1.847695359999999880e+02,-3.328724980055147284e+02
-1.958054689999999880e+02,-1.851308640000000025e+02,-3.319349980110293927e+02
-1.958054689999999880e+02,-1.847695359999999880e+02,-3.322474980091911902e+02
-1.958054689999999880e+02,-1.851308640000000025e+02,-3.313099980147059114e+02
-1.958054689999999880e+02,-1.847695359999999880e+02,-3.309974980165441139e+02
-1.958054689999999880e+02,-1.844082080000000019e+02,-3.325599980073529309e+02
-1.958054689999999880e+02,-1.844082080000000019e+02,-3.306849980183823732e+02
-1.958054689999999880e+02,-1.840468799999999874e+02,-3.303724980202205757e+02
-1.961667970000000025e+02,-1.840468799999999874e+02,-3.294349980257352968e+02
-1.958054689999999880e+02,-1.844082080000000019e+02,-3.294349980257352968e+02
-1.958054689999999880e+02,-1.840468799999999874e+02,-3.297474980238970375e+02
-1.961667970000000025e+02,-1.840468799999999874e+02,-3.288099980294117586e+02
-1.958054689999999880e+02,-1.844082080000000019e+02,-3.288099980294117586e+02
-1.958054689999999880e+02,-1.840468799999999874e+02,-3.284974980312500179e+02
-1.958054689999999880e+02,-1.836855520000000013e+02,-3.300599980220588350e+02
-1.961667970000000025e+02,-1.833242240000000152e+02,-3.300599980220588350e+02
-1.958054689999999880e+02,-1.833242240000000152e+02,-3.284974980312500179e+02
-1.961667970000000025e+02,-1.833242240000000152e+02,-3.231849980625000285e+02
-1.961667970000000025e+02,-1.833242240000000152e+02,-3.225599980661764903e+02
-1.958054689999999880e+02,-1.829628960000000006e+02,-3.281849980330882204e+02
-1.961667970000000025e+02,-1.826015679999999861e+02,-3.275599980367647390e+02
-1.958054689999999880e+02,-1.829628960000000006e+02,-3.275599980367647390e+02
-1.958054689999999880e+02,-1.826015679999999861e+02,-3.272474980386029415e+02
-1.961667970000000025e+02,-1.826015679999999861e+02,-3.263099980441176626e+02
-1.958054689999999880e+02,-1.829628960000000006e+02,-3.263099980441176626e+02
