-1.804562530000000038e+02,-1.983750000000000000e+02,-3.827500000000000000e+02
-1.804562530000000038e+02,-1.975937500000000000e+02,-3.927500000000000000e+02
-1.804562530000000038e+02,-1.975937500000000000e+02,-3.827500000000000000e+02
-1.804562530000000038e+02,-1.968125000000000000e+02,-3.927500000000000000e+02
-1.804562530000000038e+02,-1.968125000000000000e+02,-3.827500000000000000e+02
-1.804562530000000038e+02,-1.960312500000000000e+02,-3.927500000000000000e+02
-1.804562530000000038e+02,-1.964218750000000000e+02,-3.815000000000000000e+02
-1.804562530000000038e+02,-1.960312500000000000e+02,-3.802500000000000000e+02
-1.804562530000000038e+02,-1.952500000000000000e+02,-3.927500000000000000e+02
-1.804562530000000038e+02,-1.952500000000000000e+02,-3.802500000000000000e+02
-1.808468780000000038e+02,-1.944687500000000000e+02,-3.940000000000000000e+02
-1.804562530000000038e+02,-1.944687500000000000e+02,-3.927500000000000000e+02
-1.804562530000000038e+02,-1.944687500000000000e+02,-3.802500000000000000e+02
-1.804562530000000038e+02,-1.936875000000000000e+02,-3.952500000000000000e+02
-1.804562530000000038e+02,-1.940781250000000000e+02,-3.940000000000000000e+02
-1.804562530000000038e+02,-1.940781250000000000e+02,-3.790000000000000000e+02
-1.804562530000000038e+02,-1.929062500000000000e+02,-3.952500000000000000e+02
-1.804562530000000038e+02,-1.921250000000000000e+02,-3.952500000000000000e+02
-1.804562530000000038e+02,-1.913437500000000000e+02,-3.952500000000000000e+02
-1.804562530000000038e+02,-1.905625000000000000e+02,-3.952500000000000000e+02
-1.804562530000000038e+02,-1.897812500000000000e+02,-3.952500000000000000e+02
-1.808468780000000038e+02,-1.890000000000000000e+02,-3.965000000000000000e+02
-1.804562530000000038e+02,-1.890000000000000000e+02,-3.952500000000000000e+02
-1.808468780000000038e+02,-1.882187500000000000e+02,-3.965000000000000000e+02
-1.804562530000000038e+02,-1.882187500000000000e+02,-3.952500000000000000e+02
-1.804562530000000038e+02,-1.874375000000000000e+02,-3.977500000000000000e+02
-1.804562530000000038e+02,-1.878281250000000000e+02,-3.965000000000000000e+02
-1.804562530000000038e+02,-1.866562500000000000e+02,-3.977500000000000000e+02
-1.804562530000000038e+02,-1.858750000000000000e+02,-3.977500000000000000e+02
-1.804562530000000038e+02,-1.850937500000000000e+02,-3.977500000000000000e+02
-1.804562530000000038e+02,-1.843125000000000000e+02,-3.977500000000000000e+02
-1.804562530000000038e+02,-1.839218750000000000e+02,-3.965000000000000000e+02
-1.808468780000000038e+02,-1.835312500000000000e+02,-3.965000000000000000e+02
-1.804562530000000038e+02,-1.835312500000000000e+02,-3.952500000000000000e+02
-1.804562530000000038e+02,-1.827500000000000000e+02,-3.952500000000000000e+02
-1.804562530000000038e+02,-1.823593750000000000e+02,-3.940000000000000000e+02
-1.808468780000000038e+02,-1.819687500000000000e+02,-3.940000000000000000e+02
-1.804562530000000038e+02,-1.819687500000000000e+02,-3.927500000000000000e+02
-1.804562530000000038e+02,-1.811875000000000000e+02,-3.927500000000000000e+02
-1.808468780000000038e+02,-1.811875000000000000e+02,-3.915000000000000000e+02
-1.804562530000000038e+02,-1.815781250000000000e+02,-3.865000000000000000e+02
-1.804562530000000038e+02,-1.811875000000000000e+02,-3.877500000000000000e+02
-1.804562530000000038e+02,-1.811875000000000000e+02,-3.852500000000000000e+02
-1.804562530000000038e+02,-1.815781250000000000e+02,-3.790000000000000000e+02
-1.804562530000000038e+02,-1.811875000000000000e+02,-3.802500000000000000e+02
-1.804562530000000038e+02,-1.807968750000000000e+02,-3.915000000000000000e+02
-1.804562530000000038e+02,-1.807968750000000000e+02,-3.890000000000000000e+02
-1.804562530000000038e+02,-1.807968750000000000e+02,-3.840000000000000000e+02
-1.804562530000000038e+02,-1.804062500000000000e+02,-3.827500000000000000e+02
-1.804562530000000038e+02,-1.804062500000000000e+02,-3.802500000000000000e+02
-1.804562530000000038e+02,-1.800156250000000000e+02,-3.815000000000000000e+02
-1.808468780000000038e+02,-1.796250000000000000e+02,-3.815000000000000000e+02
-1.800656280000000038e+02,-2.007187500000000000e+02,-3.890000000000000000e+02
-1.800656280000000038e+02,-1.999375000000000000e+02,-3.915000000000000000e+02
-1.796750030000000038e+02,-1.999375000000000000e+02,-3.902500000000000000e+02
-1.796750030000000038e+02,-2.003281250000000000e+02,-3.890000000000000000e+02
-1.800656280000000038e+02,-1.999375000000000000e+02,-3.865000000000000000e+02
-1.796750030000000038e+02,-1.999375000000000000e+02,-3.877500000000000000e+02
-1.796750030000000038e+02,-1.991562500000000000e+02,-3.927500000000000000e+02
-1.796750030000000038e+02,-1.995468750000000000e+02,-3.915000000000000000e+02
-1.796750030000000038e+02,-1.995468750000000000e+02,-3.865000000000000000e+02
-1.796750030000000038e+02,-1.991562500000000000e+02,-3.852500000000000000e+02
-1.796750030000000038e+02,-1.983750000000000000e+02,-3.927500000000000000e+02
-1.796750030000000038e+02,-1.987656250000000000e+02,-3.840000000000000000e+02
-1.796750030000000038e+02,-1.983750000000000000e+02,-3.827500000000000000e+02
-1.796750030000000038e+02,-1.975937500000000000e+02,-3.927500000000000000e+02
-1.796750030000000038e+02,-1.975937500000000000e+02,-3.827500000000000000e+02
-1.796750030000000038e+02,-1.968125000000000000e+02,-3.927500000000000000e+02
-1.796750030000000038e+02,-1.968125000000000000e+02,-3.827500000000000000e+02
-1.796750030000000038e+02,-1.960312500000000000e+02,-3.927500000000000000e+02
-1.796750030000000038e+02,-1.964218750000000000e+02,-3.815000000000000000e+02
-1.796750030000000038e+02,-1.960312500000000000e+02,-3.802500000000000000e+02
-1.796750030000000038e+02,-1.952500000000000000e+02,-3.927500000000000000e+02
-1.796750030000000038e+02,-1.952500000000000000e+02,-3.802500000000000000e+02
-1.796750030000000038e+02,-1.944687500000000000e+02,-3.927500000000000000e+02
-1.796750030000000038e+02,-1.944687500000000000e+02,-3.802500000000000000e+02
-1.800656280000000038e+02,-1.936875000000000000e+02,-3.940000000000000000e+02
-1.796750030000000038e+02,-1.936875000000000000e+02,-3.927500000000000000e+02
-1.796750030000000038e+02,-1.940781250000000000e+02,-3.790000000000000000e+02
-1.800656280000000038e+02,-1.929062500000000000e+02,-3.940000000000000000e+02
-1.796750030000000038e+02,-1.929062500000000000e+02,-3.927500000000000000e+02
-1.796750030000000038e+02,-1.921250000000000000e+02,-3.952500000000000000e+02
-1.796750030000000038e+02,-1.925156250000000000e+02,-3.940000000000000000e+02
-1.796750030000000038e+02,-1.913437500000000000e+02,-3.952500000000000000e+02
-1.796750030000000038e+02,-1.905625000000000000e+02,-3.952500000000000000e+02
-1.796750030000000038e+02,-1.897812500000000000e+02,-3.952500000000000000e+02
-1.796750030000000038e+02,-1.890000000000000000e+02,-3.952500000000000000e+02
-1.796750030000000038e+02,-1.882187500000000000e+02,-3.952500000000000000e+02
-1.800656280000000038e+02,-1.874375000000000000e+02,-3.965000000000000000e+02
-1.796750030000000038e+02,-1.874375000000000000e+02,-3.952500000000000000e+02
-1.800656280000000038e+02,-1.866562500000000000e+02,-3.965000000000000000e+02
-1.796750030000000038e+02,-1.866562500000000000e+02,-3.952500000000000000e+02
-1.796750030000000038e+02,-1.858750000000000000e+02,-3.977500000000000000e+02
-1.796750030000000038e+02,-1.862656250000000000e+02,-3.965000000000000000e+02
-1.796750030000000038e+02,-1.850937500000000000e+02,-3.977500000000000000e+02
-1.796750030000000038e+02,-1.847031250000000000e+02,-3.965000000000000000e+02
-1.800656280000000038e+02,-1.843125000000000000e+02,-3.965000000000000000e+02
-1.796750030000000038e+02,-1.843125000000000000e+02,-3.952500000000000000e+02
-1.796750030000000038e+02,-1.835312500000000000e+02,-3.952500000000000000e+02
-1.796750030000000038e+02,-1.827500000000000000e+02,-3.952500000000000000e+02
-1.796750030000000038e+02,-1.823593750000000000e+02,-3.940000000000000000e+02
-1.796750030000000038e+02,-1.819687500000000000e+02,-3.927500000000000000e+02
-1.796750030000000038e+02,-1.811875000000000000e+02,-3.927500000000000000e+02
-1.796750030000000038e+02,-1.815781250000000000e+02,-3.865000000000000000e+02
-1.796750030000000038e+02,-1.811875000000000000e+02,-3.877500000000000000e+02
-1.796750030000000038e+02,-1.811875000000000000e+02,-3.852500000000000000e+02
-1.796750030000000038e+02,-1.815781250000000000e+02,-3.790000000000000000e+02
-1.796750030000000038e+02,-1.811875000000000000e+02,-3.802500000000000000e+02
-1.796750030000000038e+02,-1.807968750000000000e+02,-3.915000000000000000e+02
-1.796750030000000038e+02,-1.807968750000000000e+02,-3.890000000000000000e+02
-1.796750030000000038e+02,-1.807968750000000000e+02,-3.840000000000000000e+02
-1.796750030000000038e+02,-1.804062500000000000e+02,-3.827500000000000000e+02
-1.796750030000000038e+02,-1.804062500000000000e+02,-3.802500000000000000e+02
-1.796750030000000038e+02,-1.800156250000000000e+02,-3.815000000000000000e+02
-1.792843780000000038e+02,-1.999375000000000000e+02,-3.890000000000000000e+02
-1.792843780000000038e+02,-1.991562500000000000e+02,-3.915000000000000000e+02
-1.788937530000000038e+02,-1.991562500000000000e+02,-3.902500000000000000e+02
-1.788937530000000038e+02,-1.995468750000000000e+02,-3.890000000000000000e+02
-1.792843780000000038e+02,-1.991562500000000000e+02,-3.865000000000000000e+02
-1.788937530000000038e+02,-1.991562500000000000e+02,-3.877500000000000000e+02
-1.788937530000000038e+02,-1.983750000000000000e+02,-3.927500000000000000e+02
-1.788937530000000038e+02,-1.987656250000000000e+02,-3.915000000000000000e+02
-1.788937530000000038e+02,-1.987656250000000000e+02,-3.865000000000000000e+02
-1.792843780000000038e+02,-1.983750000000000000e+02,-3.840000000000000000e+02
-1.788937530000000038e+02,-1.983750000000000000e+02,-3.852500000000000000e+02
-1.788937530000000038e+02,-1.975937500000000000e+02,-3.927500000000000000e+02
-1.788937530000000038e+02,-1.979843750000000000e+02,-3.840000000000000000e+02
-1.788937530000000038e+02,-1.975937500000000000e+02,-3.827500000000000000e+02
-1.788937530000000038e+02,-1.968125000000000000e+02,-3.927500000000000000e+02
-1.788937530000000038e+02,-1.972031250000000000e+02,-3.815000000000000000e+02
-1.792843780000000038e+02,-1.968125000000000000e+02,-3.815000000000000000e+02
-1.788937530000000038e+02,-1.968125000000000000e+02,-3.802500000000000000e+02
-1.788937530000000038e+02,-1.960312500000000000e+02,-3.927500000000000000e+02
-1.788937530000000038e+02,-1.960312500000000000e+02,-3.802500000000000000e+02
-1.788937530000000038e+02,-1.952500000000000000e+02,-3.927500000000000000e+02
-1.788937530000000038e+02,-1.952500000000000000e+02,-3.802500000000000000e+02
-1.788937530000000038e+02,-1.944687500000000000e+02,-3.927500000000000000e+02
-1.788937530000000038e+02,-1.948593750000000000e+02,-3.790000000000000000e+02
-1.792843780000000038e+02,-1.944687500000000000e+02,-3.790000000000000000e+02
-1.788937530000000038e+02,-1.936875000000000000e+02,-3.927500000000000000e+02
-1.788937530000000038e+02,-1.929062500000000000e+02,-3.927500000000000000e+02
-1.792843780000000038e+02,-1.921250000000000000e+02,-3.940000000000000000e+02
-1.788937530000000038e+02,-1.921250000000000000e+02,-3.927500000000000000e+02
-1.788937530000000038e+02,-1.913437500000000000e+02,-3.952500000000000000e+02
-1.788937530000000038e+02,-1.917343750000000000e+02,-3.940000000000000000e+02
-1.788937530000000038e+02,-1.905625000000000000e+02,-3.952500000000000000e+02
-1.788937530000000038e+02,-1.897812500000000000e+02,-3.952500000000000000e+02
-1.788937530000000038e+02,-1.890000000000000000e+02,-3.952500000000000000e+02
-1.788937530000000038e+02,-1.882187500000000000e+02,-3.952500000000000000e+02
-1.788937530000000038e+02,-1.874375000000000000e+02,-3.952500000000000000e+02
-1.788937530000000038e+02,-1.866562500000000000e+02,-3.952500000000000000e+02
-1.792843780000000038e+02,-1.858750000000000000e+02,-3.965000000000000000e+02
-1.788937530000000038e+02,-1.858750000000000000e+02,-3.952500000000000000e+02
-1.792843780000000038e+02,-1.850937500000000000e+02,-3.965000000000000000e+02
-1.788937530000000038e+02,-1.850937500000000000e+02,-3.952500000000000000e+02
-1.788937530000000038e+02,-1.843125000000000000e+02,-3.952500000000000000e+02
-1.788937530000000038e+02,-1.835312500000000000e+02,-3.952500000000000000e+02
-1.788937530000000038e+02,-1.827500000000000000e+02,-3.952500000000000000e+02
-1.788937530000000038e+02,-1.823593750000000000e+02,-3.940000000000000000e+02
-1.788937530000000038e+02,-1.819687500000000000e+02,-3.927500000000000000e+02
-1.788937530000000038e+02,-1.811875000000000000e+02,-3.927500000000000000e+02
-1.792843780000000038e+02,-1.811875000000000000e+02,-3.865000000000000000e+02
-1.788937530000000038e+02,-1.815781250000000000e+02,-3.840000000000000000e+02
-1.788937530000000038e+02,-1.811875000000000000e+02,-3.852500000000000000e+02
-1.792843780000000038e+02,-1.811875000000000000e+02,-3.840000000000000000e+02
-1.788937530000000038e+02,-1.811875000000000000e+02,-3.827500000000000000e+02
-1.788937530000000038e+02,-1.815781250000000000e+02,-3.790000000000000000e+02
-1.788937530000000038e+02,-1.811875000000000000e+02,-3.802500000000000000e+02
-1.788937530000000038e+02,-1.807968750000000000e+02,-3.915000000000000000e+02
-1.788937530000000038e+02,-1.807968750000000000e+02,-3.890000000000000000e+02
-1.788937530000000038e+02,-1.807968750000000000e+02,-3.865000000000000000e+02
-1.788937530000000038e+02,-1.804062500000000000e+02,-3.827500000000000000e+02
-1.788937530000000038e+02,-1.804062500000000000e+02,-3.802500000000000000e+02
-1.788937530000000038e+02,-1.800156250000000000e+02,-3.815000000000000000e+02
-1.781125030000000038e+02,-1.991562500000000000e+02,-3.902500000000000000e+02
-1.781125030000000038e+02,-1.995468750000000000e+02,-3.890000000000000000e+02
-1.781125030000000038e+02,-1.991562500000000000e+02,-3.877500000000000000e+02
-1.785031280000000038e+02,-1.983750000000000000e+02,-3.915000000000000000e+02
-1.781125030000000038e+02,-1.983750000000000000e+02,-3.902500000000000000e+02
-1.781125030000000038e+02,-1.987656250000000000e+02,-3.865000000000000000e+02
-1.781125030000000038e+02,-1.983750000000000000e+02,-3.852500000000000000e+02
-1.781125030000000038e+02,-1.975937500000000000e+02,-3.927500000000000000e+02
-1.781125030000000038e+02,-1.979843750000000000e+02,-3.915000000000000000e+02
-1.781125030000000038e+02,-1.979843750000000000e+02,-3.840000000000000000e+02
-1.781125030000000038e+02,-1.975937500000000000e+02,-3.827500000000000000e+02
-1.781125030000000038e+02,-1.968125000000000000e+02,-3.927500000000000000e+02
-1.781125030000000038e+02,-1.972031250000000000e+02,-3.815000000000000000e+02
-1.781125030000000038e+02,-1.968125000000000000e+02,-3.802500000000000000e+02
-1.781125030000000038e+02,-1.960312500000000000e+02,-3.927500000000000000e+02
-1.781125030000000038e+02,-1.960312500000000000e+02,-3.802500000000000000e+02
-1.781125030000000038e+02,-1.952500000000000000e+02,-3.927500000000000000e+02
-1.781125030000000038e+02,-1.952500000000000000e+02,-3.802500000000000000e+02
-1.781125030000000038e+02,-1.944687500000000000e+02,-3.927500000000000000e+02
-1.781125030000000038e+02,-1.948593750000000000e+02,-3.790000000000000000e+02
-1.781125030000000038e+02,-1.936875000000000000e+02,-3.927500000000000000e+02
-1.781125030000000038e+02,-1.929062500000000000e+02,-3.927500000000000000e+02
-1.781125030000000038e+02,-1.921250000000000000e+02,-3.927500000000000000e+02
-1.785031280000000038e+02,-1.913437500000000000e+02,-3.940000000000000000e+02
-1.781125030000000038e+02,-1.913437500000000000e+02,-3.927500000000000000e+02
-1.785031280000000038e+02,-1.905625000000000000e+02,-3.940000000000000000e+02
-1.781125030000000038e+02,-1.905625000000000000e+02,-3.927500000000000000e+02
-1.785031280000000038e+02,-1.897812500000000000e+02,-3.940000000000000000e+02
-1.781125030000000038e+02,-1.897812500000000000e+02,-3.927500000000000000e+02
-1.785031280000000038e+02,-1.890000000000000000e+02,-3.940000000000000000e+02
-1.781125030000000038e+02,-1.890000000000000000e+02,-3.927500000000000000e+02
-1.785031280000000038e+02,-1.882187500000000000e+02,-3.940000000000000000e+02
-1.781125030000000038e+02,-1.882187500000000000e+02,-3.927500000000000000e+02
-1.785031280000000038e+02,-1.874375000000000000e+02,-3.940000000000000000e+02
-1.781125030000000038e+02,-1.874375000000000000e+02,-3.927500000000000000e+02
-1.781125030000000038e+02,-1.866562500000000000e+02,-3.952500000000000000e+02
-1.781125030000000038e+02,-1.870468750000000000e+02,-3.940000000000000000e+02
-1.781125030000000038e+02,-1.858750000000000000e+02,-3.952500000000000000e+02
-1.781125030000000038e+02,-1.850937500000000000e+02,-3.952500000000000000e+02
-1.781125030000000038e+02,-1.843125000000000000e+02,-3.952500000000000000e+02
-1.781125030000000038e+02,-1.835312500000000000e+02,-3.952500000000000000e+02
-1.781125030000000038e+02,-1.831406250000000000e+02,-3.940000000000000000e+02
-1.785031280000000038e+02,-1.827500000000000000e+02,-3.940000000000000000e+02
-1.781125030000000038e+02,-1.827500000000000000e+02,-3.927500000000000000e+02
-1.781125030000000038e+02,-1.819687500000000000e+02,-3.927500000000000000e+02
-1.781125030000000038e+02,-1.811875000000000000e+02,-3.927500000000000000e+02
-1.781125030000000038e+02,-1.815781250000000000e+02,-3.840000000000000000e+02
-1.781125030000000038e+02,-1.811875000000000000e+02,-3.852500000000000000e+02
-1.781125030000000038e+02,-1.811875000000000000e+02,-3.827500000000000000e+02
-1.781125030000000038e+02,-1.815781250000000000e+02,-3.790000000000000000e+02
-1.781125030000000038e+02,-1.811875000000000000e+02,-3.802500000000000000e+02
-1.781125030000000038e+02,-1.807968750000000000e+02,-3.915000000000000000e+02
-1.781125030000000038e+02,-1.807968750000000000e+02,-3.890000000000000000e+02
-1.781125030000000038e+02,-1.807968750000000000e+02,-3.865000000000000000e+02
-1.781125030000000038e+02,-1.804062500000000000e+02,-3.827500000000000000e+02
-1.781125030000000038e+02,-1.804062500000000000e+02,-3.802500000000000000e+02
-1.781125030000000038e+02,-1.800156250000000000e+02,-3.815000000000000000e+02
-1.777218780000000038e+02,-1.991562500000000000e+02,-3.890000000000000000e+02
-1.773312530000000038e+02,-1.983750000000000000e+02,-3.902500000000000000e+02
-1.773312530000000038e+02,-1.987656250000000000e+02,-3.890000000000000000e+02
-1.773312530000000038e+02,-1.987656250000000000e+02,-3.865000000000000000e+02
-1.773312530000000038e+02,-1.983750000000000000e+02,-3.852500000000000000e+02
-1.777218780000000038e+02,-1.983750000000000000e+02,-3.815000000000000000e+02
-1.773312530000000038e+02,-1.983750000000000000e+02,-3.827500000000000000e+02
-1.773312530000000038e+02,-1.987656250000000000e+02,-3.815000000000000000e+02
-1.773312530000000038e+02,-1.983750000000000000e+02,-3.802500000000000000e+02
-1.773312530000000038e+02,-1.975937500000000000e+02,-3.927500000000000000e+02
-1.773312530000000038e+02,-1.979843750000000000e+02,-3.915000000000000000e+02
-1.773312530000000038e+02,-1.979843750000000000e+02,-3.840000000000000000e+02
-1.777218780000000038e+02,-1.975937500000000000e+02,-3.815000000000000000e+02
-1.773312530000000038e+02,-1.975937500000000000e+02,-3.802500000000000000e+02
-1.773312530000000038e+02,-1.968125000000000000e+02,-3.927500000000000000e+02
-1.773312530000000038e+02,-1.968125000000000000e+02,-3.802500000000000000e+02
-1.773312530000000038e+02,-1.960312500000000000e+02,-3.927500000000000000e+02
-1.773312530000000038e+02,-1.960312500000000000e+02,-3.802500000000000000e+02
-1.773312530000000038e+02,-1.952500000000000000e+02,-3.927500000000000000e+02
-1.773312530000000038e+02,-1.952500000000000000e+02,-3.802500000000000000e+02
-1.773312530000000038e+02,-1.944687500000000000e+02,-3.927500000000000000e+02
-1.773312530000000038e+02,-1.948593750000000000e+02,-3.790000000000000000e+02
-1.773312530000000038e+02,-1.936875000000000000e+02,-3.927500000000000000e+02
-1.773312530000000038e+02,-1.929062500000000000e+02,-3.927500000000000000e+02
-1.773312530000000038e+02,-1.921250000000000000e+02,-3.927500000000000000e+02
-1.773312530000000038e+02,-1.913437500000000000e+02,-3.927500000000000000e+02
-1.773312530000000038e+02,-1.905625000000000000e+02,-3.927500000000000000e+02
-1.773312530000000038e+02,-1.897812500000000000e+02,-3.927500000000000000e+02
-1.773312530000000038e+02,-1.890000000000000000e+02,-3.927500000000000000e+02
-1.773312530000000038e+02,-1.882187500000000000e+02,-3.927500000000000000e+02
-1.773312530000000038e+02,-1.874375000000000000e+02,-3.927500000000000000e+02
-1.777218780000000038e+02,-1.866562500000000000e+02,-3.940000000000000000e+02
-1.773312530000000038e+02,-1.866562500000000000e+02,-3.927500000000000000e+02
-1.773312530000000038e+02,-1.858750000000000000e+02,-3.952500000000000000e+02
-1.773312530000000038e+02,-1.862656250000000000e+02,-3.940000000000000000e+02
-1.773312530000000038e+02,-1.850937500000000000e+02,-3.952500000000000000e+02
-1.773312530000000038e+02,-1.843125000000000000e+02,-3.952500000000000000e+02
-1.773312530000000038e+02,-1.835312500000000000e+02,-3.952500000000000000e+02
-1.773312530000000038e+02,-1.831406250000000000e+02,-3.940000000000000000e+02
-1.773312530000000038e+02,-1.827500000000000000e+02,-3.927500000000000000e+02
-1.773312530000000038e+02,-1.819687500000000000e+02,-3.927500000000000000e+02
-1.777218780000000038e+02,-1.819687500000000000e+02,-3.840000000000000000e+02
-1.773312530000000038e+02,-1.823593750000000000e+02,-3.840000000000000000e+02
-1.773312530000000038e+02,-1.819687500000000000e+02,-3.852500000000000000e+02
-1.773312530000000038e+02,-1.819687500000000000e+02,-3.827500000000000000e+02
-1.777218780000000038e+02,-1.819687500000000000e+02,-3.790000000000000000e+02
-1.773312530000000038e+02,-1.823593750000000000e+02,-3.790000000000000000e+02
-1.773312530000000038e+02,-1.819687500000000000e+02,-3.802500000000000000e+02
-1.773312530000000038e+02,-1.811875000000000000e+02,-3.927500000000000000e+02
-1.773312530000000038e+02,-1.811875000000000000e+02,-3.852500000000000000e+02
-1.773312530000000038e+02,-1.811875000000000000e+02,-3.827500000000000000e+02
-1.773312530000000038e+02,-1.811875000000000000e+02,-3.802500000000000000e+02
-1.773312530000000038e+02,-1.807968750000000000e+02,-3.915000000000000000e+02
-1.773312530000000038e+02,-1.807968750000000000e+02,-3.890000000000000000e+02
-1.777218780000000038e+02,-1.804062500000000000e+02,-3.865000000000000000e+02
-1.773312530000000038e+02,-1.804062500000000000e+02,-3.877500000000000000e+02
-1.773312530000000038e+02,-1.804062500000000000e+02,-3.852500000000000000e+02
-1.773312530000000038e+02,-1.807968750000000000e+02,-3.815000000000000000e+02
-1.777218780000000038e+02,-1.804062500000000000e+02,-3.815000000000000000e+02
-1.773312530000000038e+02,-1.800156250000000000e+02,-3.865000000000000000e+02
-1.769406280000000038e+02,-1.991562500000000000e+02,-3.815000000000000000e+02
-1.765500030000000038e+02,-1.991562500000000000e+02,-3.827500000000000000e+02
-1.765500030000000038e+02,-1.995468750000000000e+02,-3.815000000000000000e+02
-1.765500030000000038e+02,-1.991562500000000000e+02,-3.802500000000000000e+02
-1.769406280000000038e+02,-1.983750000000000000e+02,-3.890000000000000000e+02
-1.765500030000000038e+02,-1.983750000000000000e+02,-3.877500000000000000e+02
-1.765500030000000038e+02,-1.987656250000000000e+02,-3.865000000000000000e+02
-1.765500030000000038e+02,-1.983750000000000000e+02,-3.852500000000000000e+02
-1.765500030000000038e+02,-1.983750000000000000e+02,-3.827500000000000000e+02
-1.765500030000000038e+02,-1.983750000000000000e+02,-3.802500000000000000e+02
-1.769406280000000038e+02,-1.975937500000000000e+02,-3.915000000000000000e+02
-1.765500030000000038e+02,-1.975937500000000000e+02,-3.902500000000000000e+02
-1.765500030000000038e+02,-1.979843750000000000e+02,-3.890000000000000000e+02
-1.765500030000000038e+02,-1.979843750000000000e+02,-3.840000000000000000e+02
-1.765500030000000038e+02,-1.975937500000000000e+02,-3.802500000000000000e+02
-1.765500030000000038e+02,-1.968125000000000000e+02,-3.927500000000000000e+02
-1.765500030000000038e+02,-1.972031250000000000e+02,-3.915000000000000000e+02
-1.765500030000000038e+02,-1.968125000000000000e+02,-3.802500000000000000e+02
-1.765500030000000038e+02,-1.960312500000000000e+02,-3.927500000000000000e+02
-1.765500030000000038e+02,-1.960312500000000000e+02,-3.802500000000000000e+02
-1.765500030000000038e+02,-1.952500000000000000e+02,-3.927500000000000000e+02
-1.765500030000000038e+02,-1.952500000000000000e+02,-3.802500000000000000e+02
-1.765500030000000038e+02,-1.944687500000000000e+02,-3.927500000000000000e+02
-1.765500030000000038e+02,-1.948593750000000000e+02,-3.790000000000000000e+02
-1.765500030000000038e+02,-1.936875000000000000e+02,-3.927500000000000000e+02
-1.765500030000000038e+02,-1.929062500000000000e+02,-3.927500000000000000e+02
-1.765500030000000038e+02,-1.921250000000000000e+02,-3.927500000000000000e+02
-1.765500030000000038e+02,-1.913437500000000000e+02,-3.927500000000000000e+02
-1.765500030000000038e+02,-1.905625000000000000e+02,-3.927500000000000000e+02
-1.765500030000000038e+02,-1.897812500000000000e+02,-3.927500000000000000e+02
-1.765500030000000038e+02,-1.890000000000000000e+02,-3.927500000000000000e+02
-1.765500030000000038e+02,-1.882187500000000000e+02,-3.927500000000000000e+02
-1.765500030000000038e+02,-1.874375000000000000e+02,-3.927500000000000000e+02
-1.765500030000000038e+02,-1.866562500000000000e+02,-3.927500000000000000e+02
-1.769406280000000038e+02,-1.858750000000000000e+02,-3.940000000000000000e+02
-1.765500030000000038e+02,-1.858750000000000000e+02,-3.927500000000000000e+02
-1.765500030000000038e+02,-1.850937500000000000e+02,-3.952500000000000000e+02
-1.765500030000000038e+02,-1.854843750000000000e+02,-3.940000000000000000e+02
-1.765500030000000038e+02,-1.843125000000000000e+02,-3.952500000000000000e+02
-1.765500030000000038e+02,-1.835312500000000000e+02,-3.952500000000000000e+02
-1.765500030000000038e+02,-1.831406250000000000e+02,-3.940000000000000000e+02
-1.765500030000000038e+02,-1.827500000000000000e+02,-3.927500000000000000e+02
-1.769406280000000038e+02,-1.827500000000000000e+02,-3.790000000000000000e+02
-1.765500030000000038e+02,-1.831406250000000000e+02,-3.790000000000000000e+02
-1.765500030000000038e+02,-1.827500000000000000e+02,-3.802500000000000000e+02
-1.765500030000000038e+02,-1.819687500000000000e+02,-3.927500000000000000e+02
-1.765500030000000038e+02,-1.823593750000000000e+02,-3.840000000000000000e+02
-1.765500030000000038e+02,-1.819687500000000000e+02,-3.852500000000000000e+02
-1.765500030000000038e+02,-1.819687500000000000e+02,-3.827500000000000000e+02
-1.765500030000000038e+02,-1.819687500000000000e+02,-3.802500000000000000e+02
-1.765500030000000038e+02,-1.811875000000000000e+02,-3.927500000000000000e+02
-1.765500030000000038e+02,-1.811875000000000000e+02,-3.852500000000000000e+02
-1.765500030000000038e+02,-1.815781250000000000e+02,-3.815000000000000000e+02
-1.769406280000000038e+02,-1.811875000000000000e+02,-3.815000000000000000e+02
-1.765500030000000038e+02,-1.807968750000000000e+02,-3.915000000000000000e+02
-1.769406280000000038e+02,-1.804062500000000000e+02,-3.890000000000000000e+02
-1.765500030000000038e+02,-1.804062500000000000e+02,-3.902500000000000000e+02
-1.765500030000000038e+02,-1.804062500000000000e+02,-3.852500000000000000e+02
-1.765500030000000038e+02,-1.800156250000000000e+02,-3.890000000000000000e+02
-1.765500030000000038e+02,-1.800156250000000000e+02,-3.865000000000000000e+02
-1.761593780000000038e+02,-1.999375000000000000e+02,-3.815000000000000000e+02
-1.757687530000000038e+02,-1.999375000000000000e+02,-3.827500000000000000e+02
-1.757687530000000038e+02,-2.003281250000000000e+02,-3.815000000000000000e+02
-1.757687530000000038e+02,-1.999375000000000000e+02,-3.802500000000000000e+02
-1.757687530000000038e+02,-1.991562500000000000e+02,-3.827500000000000000e+02
-1.757687530000000038e+02,-1.991562500000000000e+02,-3.802500000000000000e+02
-1.757687530000000038e+02,-1.983750000000000000e+02,-3.877500000000000000e+02
-1.757687530000000038e+02,-1.987656250000000000e+02,-3.865000000000000000e+02
-1.757687530000000038e+02,-1.983750000000000000e+02,-3.852500000000000000e+02
-1.757687530000000038e+02,-1.983750000000000000e+02,-3.827500000000000000e+02
-1.757687530000000038e+02,-1.983750000000000000e+02,-3.802500000000000000e+02
-1.757687530000000038e+02,-1.975937500000000000e+02,-3.902500000000000000e+02
-1.757687530000000038e+02,-1.979843750000000000e+02,-3.890000000000000000e+02
-1.757687530000000038e+02,-1.979843750000000000e+02,-3.840000000000000000e+02
-1.757687530000000038e+02,-1.975937500000000000e+02,-3.802500000000000000e+02
-1.761593780000000038e+02,-1.968125000000000000e+02,-3.915000000000000000e+02
-1.757687530000000038e+02,-1.968125000000000000e+02,-3.902500000000000000e+02
-1.757687530000000038e+02,-1.968125000000000000e+02,-3.802500000000000000e+02
-1.757687530000000038e+02,-1.960312500000000000e+02,-3.927500000000000000e+02
-1.757687530000000038e+02,-1.964218750000000000e+02,-3.915000000000000000e+02
-1.757687530000000038e+02,-1.960312500000000000e+02,-3.802500000000000000e+02
-1.757687530000000038e+02,-1.952500000000000000e+02,-3.927500000000000000e+02
-1.757687530000000038e+02,-1.952500000000000000e+02,-3.802500000000000000e+02
-1.757687530000000038e+02,-1.944687500000000000e+02,-3.927500000000000000e+02
-1.757687530000000038e+02,-1.948593750000000000e+02,-3.790000000000000000e+02
-1.757687530000000038e+02,-1.936875000000000000e+02,-3.927500000000000000e+02
-1.757687530000000038e+02,-1.929062500000000000e+02,-3.927500000000000000e+02
-1.757687530000000038e+02,-1.921250000000000000e+02,-3.927500000000000000e+02
-1.757687530000000038e+02,-1.913437500000000000e+02,-3.927500000000000000e+02
-1.757687530000000038e+02,-1.905625000000000000e+02,-3.927500000000000000e+02
-1.757687530000000038e+02,-1.897812500000000000e+02,-3.927500000000000000e+02
-1.757687530000000038e+02,-1.890000000000000000e+02,-3.927500000000000000e+02
-1.757687530000000038e+02,-1.882187500000000000e+02,-3.927500000000000000e+02
-1.757687530000000038e+02,-1.874375000000000000e+02,-3.927500000000000000e+02
-1.757687530000000038e+02,-1.866562500000000000e+02,-3.927500000000000000e+02
-1.757687530000000038e+02,-1.858750000000000000e+02,-3.927500000000000000e+02
-1.761593780000000038e+02,-1.850937500000000000e+02,-3.940000000000000000e+02
-1.757687530000000038e+02,-1.850937500000000000e+02,-3.927500000000000000e+02
-1.757687530000000038e+02,-1.843125000000000000e+02,-3.952500000000000000e+02
-1.757687530000000038e+02,-1.847031250000000000e+02,-3.940000000000000000e+02
-1.757687530000000038e+02,-1.835312500000000000e+02,-3.952500000000000000e+02
-1.761593780000000038e+02,-1.835312500000000000e+02,-3.790000000000000000e+02
-1.757687530000000038e+02,-1.839218750000000000e+02,-3.790000000000000000e+02
-1.757687530000000038e+02,-1.835312500000000000e+02,-3.802500000000000000e+02
-1.757687530000000038e+02,-1.831406250000000000e+02,-3.940000000000000000e+02
-1.757687530000000038e+02,-1.827500000000000000e+02,-3.927500000000000000e+02
-1.757687530000000038e+02,-1.827500000000000000e+02,-3.802500000000000000e+02
-1.757687530000000038e+02,-1.819687500000000000e+02,-3.927500000000000000e+02
-1.757687530000000038e+02,-1.823593750000000000e+02,-3.840000000000000000e+02
-1.757687530000000038e+02,-1.819687500000000000e+02,-3.852500000000000000e+02
-1.761593780000000038e+02,-1.819687500000000000e+02,-3.815000000000000000e+02
-1.757687530000000038e+02,-1.823593750000000000e+02,-3.815000000000000000e+02
-1.757687530000000038e+02,-1.811875000000000000e+02,-3.927500000000000000e+02
-1.757687530000000038e+02,-1.811875000000000000e+02,-3.852500000000000000e+02
-1.757687530000000038e+02,-1.807968750000000000e+02,-3.915000000000000000e+02
-1.757687530000000038e+02,-1.804062500000000000e+02,-3.902500000000000000e+02
-1.757687530000000038e+02,-1.804062500000000000e+02,-3.852500000000000000e+02
-1.757687530000000038e+02,-1.800156250000000000e+02,-3.890000000000000000e+02
-1.757687530000000038e+02,-1.800156250000000000e+02,-3.865000000000000000e+02
-1.749875030000000038e+02,-1.999375000000000000e+02,-3.827500000000000000e+02
-1.749875030000000038e+02,-2.003281250000000000e+02,-3.815000000000000000e+02
-1.749875030000000038e+02,-1.999375000000000000e+02,-3.802500000000000000e+02
-1.749875030000000038e+02,-1.991562500000000000e+02,-3.827500000000000000e+02
-1.749875030000000038e+02,-1.991562500000000000e+02,-3.802500000000000000e+02
-1.749875030000000038e+02,-1.983750000000000000e+02,-3.877500000000000000e+02
-1.749875030000000038e+02,-1.987656250000000000e+02,-3.865000000000000000e+02
-1.749875030000000038e+02,-1.983750000000000000e+02,-3.852500000000000000e+02
-1.749875030000000038e+02,-1.983750000000000000e+02,-3.827500000000000000e+02
-1.749875030000000038e+02,-1.983750000000000000e+02,-3.802500000000000000e+02
-1.753781280000000038e+02,-1.975937500000000000e+02,-3.890000000000000000e+02
-1.749875030000000038e+02,-1.975937500000000000e+02,-3.877500000000000000e+02
-1.749875030000000038e+02,-1.979843750000000000e+02,-3.840000000000000000e+02
-1.749875030000000038e+02,-1.975937500000000000e+02,-3.802500000000000000e+02
-1.749875030000000038e+02,-1.968125000000000000e+02,-3.902500000000000000e+02
-1.749875030000000038e+02,-1.972031250000000000e+02,-3.890000000000000000e+02
-1.749875030000000038e+02,-1.968125000000000000e+02,-3.802500000000000000e+02
-1.753781280000000038e+02,-1.960312500000000000e+02,-3.915000000000000000e+02
-1.749875030000000038e+02,-1.960312500000000000e+02,-3.902500000000000000e+02
-1.749875030000000038e+02,-1.960312500000000000e+02,-3.802500000000000000e+02
-1.749875030000000038e+02,-1.952500000000000000e+02,-3.927500000000000000e+02
-1.749875030000000038e+02,-1.956406250000000000e+02,-3.915000000000000000e+02
-1.749875030000000038e+02,-1.952500000000000000e+02,-3.802500000000000000e+02
-1.749875030000000038e+02,-1.944687500000000000e+02,-3.927500000000000000e+02
-1.749875030000000038e+02,-1.948593750000000000e+02,-3.790000000000000000e+02
-1.749875030000000038e+02,-1.936875000000000000e+02,-3.927500000000000000e+02
-1.749875030000000038e+02,-1.929062500000000000e+02,-3.927500000000000000e+02
-1.749875030000000038e+02,-1.921250000000000000e+02,-3.927500000000000000e+02
-1.749875030000000038e+02,-1.913437500000000000e+02,-3.927500000000000000e+02
-1.749875030000000038e+02,-1.905625000000000000e+02,-3.927500000000000000e+02
-1.749875030000000038e+02,-1.897812500000000000e+02,-3.927500000000000000e+02
-1.749875030000000038e+02,-1.890000000000000000e+02,-3.927500000000000000e+02
-1.749875030000000038e+02,-1.882187500000000000e+02,-3.927500000000000000e+02
-1.749875030000000038e+02,-1.874375000000000000e+02,-3.927500000000000000e+02
-1.749875030000000038e+02,-1.866562500000000000e+02,-3.927500000000000000e+02
-1.749875030000000038e+02,-1.858750000000000000e+02,-3.927500000000000000e+02
-1.749875030000000038e+02,-1.850937500000000000e+02,-3.927500000000000000e+02
-1.753781280000000038e+02,-1.843125000000000000e+02,-3.940000000000000000e+02
-1.749875030000000038e+02,-1.843125000000000000e+02,-3.927500000000000000e+02
-1.753781280000000038e+02,-1.843125000000000000e+02,-3.790000000000000000e+02
-1.749875030000000038e+02,-1.847031250000000000e+02,-3.790000000000000000e+02
-1.749875030000000038e+02,-1.843125000000000000e+02,-3.802500000000000000e+02
-1.753781280000000038e+02,-1.835312500000000000e+02,-3.940000000000000000e+02
-1.749875030000000038e+02,-1.835312500000000000e+02,-3.927500000000000000e+02
-1.749875030000000038e+02,-1.835312500000000000e+02,-3.802500000000000000e+02
-1.749875030000000038e+02,-1.827500000000000000e+02,-3.927500000000000000e+02
-1.753781280000000038e+02,-1.827500000000000000e+02,-3.815000000000000000e+02
-1.749875030000000038e+02,-1.831406250000000000e+02,-3.815000000000000000e+02
-1.749875030000000038e+02,-1.827500000000000000e+02,-3.827500000000000000e+02
-1.749875030000000038e+02,-1.819687500000000000e+02,-3.927500000000000000e+02
-1.749875030000000038e+02,-1.823593750000000000e+02,-3.840000000000000000e+02
-1.749875030000000038e+02,-1.819687500000000000e+02,-3.852500000000000000e+02
-1.749875030000000038e+02,-1.811875000000000000e+02,-3.927500000000000000e+02
-1.749875030000000038e+02,-1.811875000000000000e+02,-3.852500000000000000e+02
-1.749875030000000038e+02,-1.807968750000000000e+02,-3.915000000000000000e+02
-1.749875030000000038e+02,-1.804062500000000000e+02,-3.902500000000000000e+02
-1.749875030000000038e+02,-1.804062500000000000e+02,-3.852500000000000000e+02
-1.749875030000000038e+02,-1.800156250000000000e+02,-3.890000000000000000e+02
-1.749875030000000038e+02,-1.800156250000000000e+02,-3.865000000000000000e+02
-1.745968780000000038e+02,-1.999375000000000000e+02,-3.815000000000000000e+02
-1.742062530000000038e+02,-1.991562500000000000e+02,-3.827500000000000000e+02
-1.742062530000000038e+02,-1.995468750000000000e+02,-3.815000000000000000e+02
-1.742062530000000038e+02,-1.991562500000000000e+02,-3.802500000000000000e+02
-1.742062530000000038e+02,-1.983750000000000000e+02,-3.877500000000000000e+02
-1.742062530000000038e+02,-1.987656250000000000e+02,-3.865000000000000000e+02
-1.742062530000000038e+02,-1.987656250000000000e+02,-3.840000000000000000e+02
-1.745968780000000038e+02,-1.983750000000000000e+02,-3.840000000000000000e+02
-1.742062530000000038e+02,-1.983750000000000000e+02,-3.802500000000000000e+02
-1.742062530000000038e+02,-1.975937500000000000e+02,-3.877500000000000000e+02
-1.742062530000000038e+02,-1.975937500000000000e+02,-3.802500000000000000e+02
-1.745968780000000038e+02,-1.968125000000000000e+02,-3.890000000000000000e+02
-1.742062530000000038e+02,-1.968125000000000000e+02,-3.877500000000000000e+02
-1.742062530000000038e+02,-1.968125000000000000e+02,-3.802500000000000000e+02
-1.742062530000000038e+02,-1.960312500000000000e+02,-3.902500000000000000e+02
-1.742062530000000038e+02,-1.964218750000000000e+02,-3.890000000000000000e+02
-1.742062530000000038e+02,-1.960312500000000000e+02,-3.802500000000000000e+02
-1.745968780000000038e+02,-1.952500000000000000e+02,-3.915000000000000000e+02
-1.742062530000000038e+02,-1.952500000000000000e+02,-3.902500000000000000e+02
-1.742062530000000038e+02,-1.952500000000000000e+02,-3.802500000000000000e+02
-1.742062530000000038e+02,-1.944687500000000000e+02,-3.927500000000000000e+02
-1.742062530000000038e+02,-1.948593750000000000e+02,-3.915000000000000000e+02
-1.745968780000000038e+02,-1.944687500000000000e+02,-3.790000000000000000e+02
-1.742062530000000038e+02,-1.944687500000000000e+02,-3.802500000000000000e+02
-1.742062530000000038e+02,-1.936875000000000000e+02,-3.927500000000000000e+02
-1.742062530000000038e+02,-1.940781250000000000e+02,-3.790000000000000000e+02
-1.742062530000000038e+02,-1.929062500000000000e+02,-3.927500000000000000e+02
-1.742062530000000038e+02,-1.921250000000000000e+02,-3.927500000000000000e+02
-1.742062530000000038e+02,-1.913437500000000000e+02,-3.927500000000000000e+02
-1.742062530000000038e+02,-1.905625000000000000e+02,-3.927500000000000000e+02
-1.742062530000000038e+02,-1.897812500000000000e+02,-3.927500000000000000e+02
-1.742062530000000038e+02,-1.890000000000000000e+02,-3.927500000000000000e+02
-1.742062530000000038e+02,-1.882187500000000000e+02,-3.927500000000000000e+02
-1.742062530000000038e+02,-1.874375000000000000e+02,-3.927500000000000000e+02
-1.742062530000000038e+02,-1.866562500000000000e+02,-3.927500000000000000e+02
-1.742062530000000038e+02,-1.858750000000000000e+02,-3.927500000000000000e+02
-1.742062530000000038e+02,-1.850937500000000000e+02,-3.927500000000000000e+02
-1.745968780000000038e+02,-1.850937500000000000e+02,-3.790000000000000000e+02
-1.742062530000000038e+02,-1.854843750000000000e+02,-3.790000000000000000e+02
-1.742062530000000038e+02,-1.850937500000000000e+02,-3.802500000000000000e+02
-1.742062530000000038e+02,-1.843125000000000000e+02,-3.927500000000000000e+02
-1.745968780000000038e+02,-1.843125000000000000e+02,-3.815000000000000000e+02
-1.742062530000000038e+02,-1.847031250000000000e+02,-3.815000000000000000e+02
-1.742062530000000038e+02,-1.843125000000000000e+02,-3.827500000000000000e+02
-1.742062530000000038e+02,-1.835312500000000000e+02,-3.927500000000000000e+02
-1.745968780000000038e+02,-1.835312500000000000e+02,-3.815000000000000000e+02
-1.742062530000000038e+02,-1.835312500000000000e+02,-3.827500000000000000e+02
-1.742062530000000038e+02,-1.827500000000000000e+02,-3.927500000000000000e+02
-1.742062530000000038e+02,-1.827500000000000000e+02,-3.827500000000000000e+02
-1.742062530000000038e+02,-1.819687500000000000e+02,-3.927500000000000000e+02
-1.745968780000000038e+02,-1.819687500000000000e+02,-3.840000000000000000e+02
-1.742062530000000038e+02,-1.819687500000000000e+02,-3.827500000000000000e+02
-1.742062530000000038e+02,-1.811875000000000000e+02,-3.927500000000000000e+02
-1.742062530000000038e+02,-1.815781250000000000e+02,-3.840000000000000000e+02
-1.742062530000000038e+02,-1.811875000000000000e+02,-3.852500000000000000e+02
-1.742062530000000038e+02,-1.807968750000000000e+02,-3.915000000000000000e+02
-1.742062530000000038e+02,-1.804062500000000000e+02,-3.902500000000000000e+02
-1.742062530000000038e+02,-1.804062500000000000e+02,-3.852500000000000000e+02
-1.742062530000000038e+02,-1.800156250000000000e+02,-3.890000000000000000e+02
-1.742062530000000038e+02,-1.800156250000000000e+02,-3.865000000000000000e+02
-1.738156280000000038e+02,-1.991562500000000000e+02,-3.815000000000000000e+02
-1.738156280000000038e+02,-1.983750000000000000e+02,-3.865000000000000000e+02
-1.734250030000000038e+02,-1.983750000000000000e+02,-3.852500000000000000e+02
-1.734250030000000038e+02,-1.987656250000000000e+02,-3.840000000000000000e+02
-1.734250030000000038e+02,-1.987656250000000000e+02,-3.815000000000000000e+02
-1.734250030000000038e+02,-1.983750000000000000e+02,-3.802500000000000000e+02
-1.734250030000000038e+02,-1.975937500000000000e+02,-3.877500000000000000e+02
-1.734250030000000038e+02,-1.979843750000000000e+02,-3.865000000000000000e+02
-1.734250030000000038e+02,-1.975937500000000000e+02,-3.802500000000000000e+02
-1.734250030000000038e+02,-1.968125000000000000e+02,-3.877500000000000000e+02
-1.734250030000000038e+02,-1.968125000000000000e+02,-3.802500000000000000e+02
-1.734250030000000038e+02,-1.960312500000000000e+02,-3.902500000000000000e+02
-1.734250030000000038e+02,-1.964218750000000000e+02,-3.890000000000000000e+02
-1.734250030000000038e+02,-1.960312500000000000e+02,-3.802500000000000000e+02
-1.734250030000000038e+02,-1.952500000000000000e+02,-3.902500000000000000e+02
-1.738156280000000038e+02,-1.952500000000000000e+02,-3.840000000000000000e+02
-1.734250030000000038e+02,-1.956406250000000000e+02,-3.840000000000000000e+02
-1.734250030000000038e+02,-1.952500000000000000e+02,-3.852500000000000000e+02
-1.734250030000000038e+02,-1.952500000000000000e+02,-3.827500000000000000e+02
-1.734250030000000038e+02,-1.952500000000000000e+02,-3.802500000000000000e+02
-1.738156280000000038e+02,-1.944687500000000000e+02,-3.915000000000000000e+02
-1.734250030000000038e+02,-1.944687500000000000e+02,-3.902500000000000000e+02
-1.734250030000000038e+02,-1.948593750000000000e+02,-3.840000000000000000e+02
-1.734250030000000038e+02,-1.944687500000000000e+02,-3.802500000000000000e+02
-1.738156280000000038e+02,-1.936875000000000000e+02,-3.915000000000000000e+02
-1.734250030000000038e+02,-1.936875000000000000e+02,-3.902500000000000000e+02
-1.738156280000000038e+02,-1.936875000000000000e+02,-3.790000000000000000e+02
-1.734250030000000038e+02,-1.936875000000000000e+02,-3.802500000000000000e+02
-1.734250030000000038e+02,-1.929062500000000000e+02,-3.927500000000000000e+02
-1.734250030000000038e+02,-1.932968750000000000e+02,-3.915000000000000000e+02
-1.734250030000000038e+02,-1.932968750000000000e+02,-3.790000000000000000e+02
-1.734250030000000038e+02,-1.921250000000000000e+02,-3.927500000000000000e+02
-1.734250030000000038e+02,-1.913437500000000000e+02,-3.927500000000000000e+02
-1.734250030000000038e+02,-1.905625000000000000e+02,-3.927500000000000000e+02
-1.734250030000000038e+02,-1.897812500000000000e+02,-3.927500000000000000e+02
-1.734250030000000038e+02,-1.890000000000000000e+02,-3.927500000000000000e+02
-1.734250030000000038e+02,-1.882187500000000000e+02,-3.927500000000000000e+02
-1.734250030000000038e+02,-1.874375000000000000e+02,-3.927500000000000000e+02
-1.734250030000000038e+02,-1.866562500000000000e+02,-3.927500000000000000e+02
-1.734250030000000038e+02,-1.858750000000000000e+02,-3.927500000000000000e+02
-1.738156280000000038e+02,-1.858750000000000000e+02,-3.815000000000000000e+02
-1.734250030000000038e+02,-1.862656250000000000e+02,-3.815000000000000000e+02
-1.734250030000000038e+02,-1.858750000000000000e+02,-3.827500000000000000e+02
-1.734250030000000038e+02,-1.858750000000000000e+02,-3.802500000000000000e+02
-1.734250030000000038e+02,-1.850937500000000000e+02,-3.927500000000000000e+02
-1.738156280000000038e+02,-1.850937500000000000e+02,-3.815000000000000000e+02
-1.734250030000000038e+02,-1.850937500000000000e+02,-3.827500000000000000e+02
-1.734250030000000038e+02,-1.854843750000000000e+02,-3.790000000000000000e+02
-1.734250030000000038e+02,-1.843125000000000000e+02,-3.927500000000000000e+02
-1.734250030000000038e+02,-1.843125000000000000e+02,-3.827500000000000000e+02
-1.734250030000000038e+02,-1.835312500000000000e+02,-3.927500000000000000e+02
-1.734250030000000038e+02,-1.835312500000000000e+02,-3.827500000000000000e+02
-1.734250030000000038e+02,-1.827500000000000000e+02,-3.927500000000000000e+02
-1.734250030000000038e+02,-1.827500000000000000e+02,-3.827500000000000000e+02
-1.734250030000000038e+02,-1.819687500000000000e+02,-3.927500000000000000e+02
-1.734250030000000038e+02,-1.819687500000000000e+02,-3.827500000000000000e+02
-1.734250030000000038e+02,-1.811875000000000000e+02,-3.927500000000000000e+02
-1.738156280000000038e+02,-1.811875000000000000e+02,-3.865000000000000000e+02
-1.734250030000000038e+02,-1.815781250000000000e+02,-3.865000000000000000e+02
-1.734250030000000038e+02,-1.811875000000000000e+02,-3.877500000000000000e+02
-1.734250030000000038e+02,-1.815781250000000000e+02,-3.840000000000000000e+02
-1.738156280000000038e+02,-1.804062500000000000e+02,-3.915000000000000000e+02
-1.734250030000000038e+02,-1.804062500000000000e+02,-3.927500000000000000e+02
-1.738156280000000038e+02,-1.804062500000000000e+02,-3.865000000000000000e+02
-1.734250030000000038e+02,-1.804062500000000000e+02,-3.877500000000000000e+02
-1.734250030000000038e+02,-1.800156250000000000e+02,-3.915000000000000000e+02
-1.734250030000000038e+02,-1.800156250000000000e+02,-3.890000000000000000e+02
-1.730343780000000038e+02,-1.991562500000000000e+02,-3.840000000000000000e+02
-1.726437530000000038e+02,-1.991562500000000000e+02,-3.852500000000000000e+02
-1.726437530000000038e+02,-1.995468750000000000e+02,-3.840000000000000000e+02
-1.726437530000000038e+02,-1.991562500000000000e+02,-3.827500000000000000e+02
-1.726437530000000038e+02,-1.983750000000000000e+02,-3.852500000000000000e+02
-1.726437530000000038e+02,-1.983750000000000000e+02,-3.827500000000000000e+02
-1.730343780000000038e+02,-1.983750000000000000e+02,-3.815000000000000000e+02
-1.730343780000000038e+02,-1.975937500000000000e+02,-3.865000000000000000e+02
-1.726437530000000038e+02,-1.975937500000000000e+02,-3.852500000000000000e+02
-1.726437530000000038e+02,-1.979843750000000000e+02,-3.815000000000000000e+02
-1.726437530000000038e+02,-1.975937500000000000e+02,-3.802500000000000000e+02
-1.730343780000000038e+02,-1.968125000000000000e+02,-3.865000000000000000e+02
-1.726437530000000038e+02,-1.968125000000000000e+02,-3.852500000000000000e+02
-1.726437530000000038e+02,-1.968125000000000000e+02,-3.802500000000000000e+02
-1.730343780000000038e+02,-1.960312500000000000e+02,-3.890000000000000000e+02
-1.730343780000000038e+02,-1.960312500000000000e+02,-3.865000000000000000e+02
-1.726437530000000038e+02,-1.964218750000000000e+02,-3.840000000000000000e+02
-1.730343780000000038e+02,-1.960312500000000000e+02,-3.840000000000000000e+02
-1.726437530000000038e+02,-1.960312500000000000e+02,-3.827500000000000000e+02
