-1.616601562500000000e+02,1.867968750000000000e+01,-7.970999759999999696e+02
-1.613203125000000000e+02,1.867968750000000000e+01,-7.975999759999999696e+02
-1.613203125000000000e+02,1.833984375000000000e+01,-7.970999759999999696e+02
-1.613203125000000000e+02,1.867968750000000000e+01,-7.965999759999999696e+02
-1.613203125000000000e+02,1.901953125000000000e+01,-7.970999759999999696e+02
-1.616601562500000000e+02,2.207812500000000000e+01,-7.970999759999999696e+02
-1.613203125000000000e+02,2.207812500000000000e+01,-7.975999759999999696e+02
-1.613203125000000000e+02,2.173828125000000000e+01,-7.970999759999999696e+02
-1.613203125000000000e+02,2.173828125000000000e+01,-7.960999759999999696e+02
-1.616601562500000000e+02,2.207812500000000000e+01,-7.960999759999999696e+02
-1.613203125000000000e+02,2.207812500000000000e+01,-7.955999759999999696e+02
-1.616601562500000000e+02,2.275781250000000000e+01,-7.970999759999999696e+02
-1.613203125000000000e+02,2.275781250000000000e+01,-7.975999759999999696e+02
-1.616601562500000000e+02,2.275781250000000000e+01,-7.960999759999999696e+02
-1.613203125000000000e+02,2.275781250000000000e+01,-7.955999759999999696e+02
-1.613203125000000000e+02,2.309765625000000000e+01,-7.970999759999999696e+02
-1.616601562500000000e+02,2.343750000000000000e+01,-7.960999759999999696e+02
-1.613203125000000000e+02,2.343750000000000000e+01,-7.965999759999999696e+02
-1.613203125000000000e+02,2.343750000000000000e+01,-7.955999759999999696e+02
-1.613203125000000000e+02,2.377734375000000000e+01,-7.960999759999999696e+02
-1.606406250000000000e+02,1.867968750000000000e+01,-7.975999759999999696e+02
-1.606406250000000000e+02,1.833984375000000000e+01,-7.970999759999999696e+02
-1.606406250000000000e+02,1.867968750000000000e+01,-7.965999759999999696e+02
-1.609804687500000000e+02,1.935937500000000000e+01,-7.970999759999999696e+02
-1.606406250000000000e+02,1.935937500000000000e+01,-7.975999759999999696e+02
-1.606406250000000000e+02,1.935937500000000000e+01,-7.965999759999999696e+02
-1.609804687500000000e+02,2.003906250000000000e+01,-7.970999759999999696e+02
-1.606406250000000000e+02,2.003906250000000000e+01,-7.975999759999999696e+02
-1.606406250000000000e+02,2.003906250000000000e+01,-7.965999759999999696e+02
-1.609804687500000000e+02,2.071875000000000000e+01,-7.970999759999999696e+02
-1.606406250000000000e+02,2.071875000000000000e+01,-7.975999759999999696e+02
-1.606406250000000000e+02,2.071875000000000000e+01,-7.965999759999999696e+02
-1.609804687500000000e+02,2.139843750000000000e+01,-7.980999759999999696e+02
-1.606406250000000000e+02,2.139843750000000000e+01,-7.985999759999999696e+02
-1.606406250000000000e+02,2.105859375000000000e+01,-7.980999759999999696e+02
-1.609804687500000000e+02,2.139843750000000000e+01,-7.970999759999999696e+02
-1.606406250000000000e+02,2.105859375000000000e+01,-7.960999759999999696e+02
-1.609804687500000000e+02,2.139843750000000000e+01,-7.960999759999999696e+02
-1.606406250000000000e+02,2.139843750000000000e+01,-7.955999759999999696e+02
-1.609804687500000000e+02,2.207812500000000000e+01,-7.980999759999999696e+02
-1.606406250000000000e+02,2.207812500000000000e+01,-7.985999759999999696e+02
-1.606406250000000000e+02,2.207812500000000000e+01,-7.955999759999999696e+02
-1.609804687500000000e+02,2.275781250000000000e+01,-7.980999759999999696e+02
-1.606406250000000000e+02,2.275781250000000000e+01,-7.985999759999999696e+02
-1.606406250000000000e+02,2.275781250000000000e+01,-7.955999759999999696e+02
-1.609804687500000000e+02,2.343750000000000000e+01,-7.980999759999999696e+02
-1.606406250000000000e+02,2.343750000000000000e+01,-7.985999759999999696e+02
-1.609804687500000000e+02,2.343750000000000000e+01,-7.970999759999999696e+02
-1.606406250000000000e+02,2.343750000000000000e+01,-7.955999759999999696e+02
-1.609804687500000000e+02,2.411718750000000000e+01,-7.980999759999999696e+02
-1.606406250000000000e+02,2.411718750000000000e+01,-7.985999759999999696e+02
-1.609804687500000000e+02,2.411718750000000000e+01,-7.970999759999999696e+02
-1.609804687500000000e+02,2.411718750000000000e+01,-7.960999759999999696e+02
-1.606406250000000000e+02,2.411718750000000000e+01,-7.955999759999999696e+02
-1.606406250000000000e+02,2.445703125000000000e+01,-7.980999759999999696e+02
-1.606406250000000000e+02,2.445703125000000000e+01,-7.970999759999999696e+02
-1.606406250000000000e+02,2.445703125000000000e+01,-7.960999759999999696e+02
-1.603007812500000000e+02,1.867968750000000000e+01,-7.970999759999999696e+02
-1.599609375000000000e+02,1.935937500000000000e+01,-7.975999759999999696e+02
-1.599609375000000000e+02,1.901953125000000000e+01,-7.970999759999999696e+02
-1.599609375000000000e+02,1.935937500000000000e+01,-7.965999759999999696e+02
-1.599609375000000000e+02,2.003906250000000000e+01,-7.975999759999999696e+02
-1.599609375000000000e+02,2.003906250000000000e+01,-7.965999759999999696e+02
-1.603007812500000000e+02,2.071875000000000000e+01,-7.980999759999999696e+02
-1.599609375000000000e+02,2.071875000000000000e+01,-7.985999759999999696e+02
-1.599609375000000000e+02,2.037890625000000000e+01,-7.980999759999999696e+02
-1.599609375000000000e+02,2.071875000000000000e+01,-7.965999759999999696e+02
-1.603007812500000000e+02,2.139843750000000000e+01,-7.990999759999999696e+02
-1.599609375000000000e+02,2.139843750000000000e+01,-7.995999759999999696e+02
-1.599609375000000000e+02,2.105859375000000000e+01,-7.990999759999999696e+02
-1.599609375000000000e+02,2.105859375000000000e+01,-7.960999759999999696e+02
-1.599609375000000000e+02,2.139843750000000000e+01,-7.955999759999999696e+02
-1.603007812500000000e+02,2.207812500000000000e+01,-7.990999759999999696e+02
-1.599609375000000000e+02,2.207812500000000000e+01,-7.995999759999999696e+02
-1.599609375000000000e+02,2.207812500000000000e+01,-7.955999759999999696e+02
-1.603007812500000000e+02,2.275781250000000000e+01,-7.990999759999999696e+02
-1.599609375000000000e+02,2.275781250000000000e+01,-7.995999759999999696e+02
-1.599609375000000000e+02,2.241796875000000000e+01,-7.950999759999999696e+02
-1.603007812500000000e+02,2.275781250000000000e+01,-7.950999759999999696e+02
-1.599609375000000000e+02,2.275781250000000000e+01,-7.945999759999999696e+02
-1.603007812500000000e+02,2.343750000000000000e+01,-7.990999759999999696e+02
-1.599609375000000000e+02,2.343750000000000000e+01,-7.995999759999999696e+02
-1.599609375000000000e+02,2.309765625000000000e+01,-7.950999759999999696e+02
-1.599609375000000000e+02,2.343750000000000000e+01,-7.955999759999999696e+02
-1.599609375000000000e+02,2.377734375000000000e+01,-8.020999759999999696e+02
-1.599609375000000000e+02,2.411718750000000000e+01,-8.015999759999999696e+02
-1.603007812500000000e+02,2.411718750000000000e+01,-8.020999759999999696e+02
-1.603007812500000000e+02,2.411718750000000000e+01,-7.990999759999999696e+02
-1.599609375000000000e+02,2.411718750000000000e+01,-7.995999759999999696e+02
-1.599609375000000000e+02,2.411718750000000000e+01,-7.955999759999999696e+02
-1.599609375000000000e+02,2.445703125000000000e+01,-8.020999759999999696e+02
-1.603007812500000000e+02,2.479687500000000000e+01,-7.990999759999999696e+02
-1.599609375000000000e+02,2.479687500000000000e+01,-7.995999759999999696e+02
-1.603007812500000000e+02,2.479687500000000000e+01,-7.980999759999999696e+02
-1.603007812500000000e+02,2.479687500000000000e+01,-7.970999759999999696e+02
-1.599609375000000000e+02,2.479687500000000000e+01,-7.965999759999999696e+02
-1.599609375000000000e+02,2.445703125000000000e+01,-7.960999759999999696e+02
-1.603007812500000000e+02,2.547656250000000000e+01,-7.990999759999999696e+02
-1.599609375000000000e+02,2.547656250000000000e+01,-7.995999759999999696e+02
-1.603007812500000000e+02,2.547656250000000000e+01,-7.980999759999999696e+02
-1.599609375000000000e+02,2.547656250000000000e+01,-7.975999759999999696e+02
-1.599609375000000000e+02,2.513671875000000000e+01,-7.970999759999999696e+02
-1.599609375000000000e+02,2.581640625000000000e+01,-7.990999759999999696e+02
-1.599609375000000000e+02,2.581640625000000000e+01,-7.980999759999999696e+02
-1.596210937500000000e+02,1.935937500000000000e+01,-7.970999759999999696e+02
-1.592812500000000000e+02,2.003906250000000000e+01,-7.975999759999999696e+02
-1.592812500000000000e+02,1.969921875000000000e+01,-7.970999759999999696e+02
-1.592812500000000000e+02,2.003906250000000000e+01,-7.965999759999999696e+02
-1.596210937500000000e+02,2.071875000000000000e+01,-8.000999759999999696e+02
-1.592812500000000000e+02,2.071875000000000000e+01,-8.005999759999999696e+02
-1.592812500000000000e+02,2.037890625000000000e+01,-8.000999759999999696e+02
-1.592812500000000000e+02,2.071875000000000000e+01,-7.995999759999999696e+02
-1.592812500000000000e+02,2.071875000000000000e+01,-7.985999759999999696e+02
-1.592812500000000000e+02,2.037890625000000000e+01,-7.980999759999999696e+02
-1.592812500000000000e+02,2.071875000000000000e+01,-7.965999759999999696e+02
-1.596210937500000000e+02,2.139843750000000000e+01,-8.000999759999999696e+02
-1.592812500000000000e+02,2.139843750000000000e+01,-8.005999759999999696e+02
-1.592812500000000000e+02,2.105859375000000000e+01,-7.990999759999999696e+02
-1.592812500000000000e+02,2.105859375000000000e+01,-7.960999759999999696e+02
-1.592812500000000000e+02,2.139843750000000000e+01,-7.955999759999999696e+02
-1.596210937500000000e+02,2.207812500000000000e+01,-8.000999759999999696e+02
-1.592812500000000000e+02,2.207812500000000000e+01,-8.005999759999999696e+02
-1.592812500000000000e+02,2.173828125000000000e+01,-7.950999759999999696e+02
-1.596210937500000000e+02,2.207812500000000000e+01,-7.950999759999999696e+02
-1.592812500000000000e+02,2.207812500000000000e+01,-7.945999759999999696e+02
-1.596210937500000000e+02,2.275781250000000000e+01,-8.020999759999999696e+02
-1.592812500000000000e+02,2.241796875000000000e+01,-8.010999759999999696e+02
-1.596210937500000000e+02,2.275781250000000000e+01,-8.010999759999999696e+02
-1.592812500000000000e+02,2.241796875000000000e+01,-8.020999759999999696e+02
-1.596210937500000000e+02,2.275781250000000000e+01,-8.000999759999999696e+02
-1.592812500000000000e+02,2.275781250000000000e+01,-7.945999759999999696e+02
-1.596210937500000000e+02,2.343750000000000000e+01,-8.010999759999999696e+02
-1.596210937500000000e+02,2.343750000000000000e+01,-8.020999759999999696e+02
-1.596210937500000000e+02,2.343750000000000000e+01,-8.000999759999999696e+02
-1.596210937500000000e+02,2.343750000000000000e+01,-7.950999759999999696e+02
-1.592812500000000000e+02,2.343750000000000000e+01,-7.945999759999999696e+02
-1.596210937500000000e+02,2.411718750000000000e+01,-8.010999759999999696e+02
-1.596210937500000000e+02,2.411718750000000000e+01,-8.000999759999999696e+02
-1.592812500000000000e+02,2.377734375000000000e+01,-7.950999759999999696e+02
-1.592812500000000000e+02,2.411718750000000000e+01,-7.955999759999999696e+02
-1.596210937500000000e+02,2.479687500000000000e+01,-8.020999759999999696e+02
-1.596210937500000000e+02,2.479687500000000000e+01,-8.010999759999999696e+02
-1.596210937500000000e+02,2.479687500000000000e+01,-8.000999759999999696e+02
-1.596210937500000000e+02,2.479687500000000000e+01,-7.960999759999999696e+02
-1.592812500000000000e+02,2.479687500000000000e+01,-7.955999759999999696e+02
-1.592812500000000000e+02,2.513671875000000000e+01,-8.020999759999999696e+02
-1.592812500000000000e+02,2.513671875000000000e+01,-8.010999759999999696e+02
-1.592812500000000000e+02,2.513671875000000000e+01,-8.000999759999999696e+02
-1.592812500000000000e+02,2.547656250000000000e+01,-7.995999759999999696e+02
-1.592812500000000000e+02,2.513671875000000000e+01,-7.970999759999999696e+02
-1.592812500000000000e+02,2.547656250000000000e+01,-7.975999759999999696e+02
-1.592812500000000000e+02,2.513671875000000000e+01,-7.960999759999999696e+02
-1.592812500000000000e+02,2.581640625000000000e+01,-7.990999759999999696e+02
-1.592812500000000000e+02,2.581640625000000000e+01,-7.980999759999999696e+02
-1.586015625000000000e+02,2.003906250000000000e+01,-7.975999759999999696e+02
-1.586015625000000000e+02,1.969921875000000000e+01,-7.970999759999999696e+02
-1.586015625000000000e+02,2.003906250000000000e+01,-7.965999759999999696e+02
-1.586015625000000000e+02,2.071875000000000000e+01,-8.005999759999999696e+02
-1.586015625000000000e+02,2.037890625000000000e+01,-8.000999759999999696e+02
-1.586015625000000000e+02,2.071875000000000000e+01,-7.995999759999999696e+02
-1.586015625000000000e+02,2.071875000000000000e+01,-7.985999759999999696e+02
-1.586015625000000000e+02,2.037890625000000000e+01,-7.980999759999999696e+02
-1.586015625000000000e+02,2.071875000000000000e+01,-7.965999759999999696e+02
-1.589414062500000000e+02,2.139843750000000000e+01,-8.010999759999999696e+02
-1.586015625000000000e+02,2.139843750000000000e+01,-8.015999759999999696e+02
-1.586015625000000000e+02,2.105859375000000000e+01,-8.010999759999999696e+02
-1.586015625000000000e+02,2.105859375000000000e+01,-7.990999759999999696e+02
-1.586015625000000000e+02,2.105859375000000000e+01,-7.960999759999999696e+02
-1.586015625000000000e+02,2.139843750000000000e+01,-7.955999759999999696e+02
-1.589414062500000000e+02,2.207812500000000000e+01,-8.020999759999999696e+02
-1.586015625000000000e+02,2.173828125000000000e+01,-8.020999759999999696e+02
-1.589414062500000000e+02,2.207812500000000000e+01,-8.010999759999999696e+02
-1.586015625000000000e+02,2.173828125000000000e+01,-7.950999759999999696e+02
-1.586015625000000000e+02,2.173828125000000000e+01,-7.940999759999999696e+02
-1.589414062500000000e+02,2.207812500000000000e+01,-7.940999759999999696e+02
-1.586015625000000000e+02,2.241796875000000000e+01,-7.940999759999999696e+02
-1.586015625000000000e+02,2.275781250000000000e+01,-7.945999759999999696e+02
-1.586015625000000000e+02,2.343750000000000000e+01,-7.945999759999999696e+02
-1.589414062500000000e+02,2.411718750000000000e+01,-7.950999759999999696e+02
-1.586015625000000000e+02,2.411718750000000000e+01,-7.945999759999999696e+02
-1.586015625000000000e+02,2.445703125000000000e+01,-7.950999759999999696e+02
-1.586015625000000000e+02,2.479687500000000000e+01,-7.955999759999999696e+02
-1.586015625000000000e+02,2.513671875000000000e+01,-8.010999759999999696e+02
-1.586015625000000000e+02,2.513671875000000000e+01,-8.020999759999999696e+02
-1.589414062500000000e+02,2.547656250000000000e+01,-8.000999759999999696e+02
-1.586015625000000000e+02,2.547656250000000000e+01,-8.005999759999999696e+02
-1.586015625000000000e+02,2.513671875000000000e+01,-7.970999759999999696e+02
-1.586015625000000000e+02,2.547656250000000000e+01,-7.975999759999999696e+02
-1.586015625000000000e+02,2.513671875000000000e+01,-7.960999759999999696e+02
-1.586015625000000000e+02,2.581640625000000000e+01,-8.000999759999999696e+02
-1.586015625000000000e+02,2.581640625000000000e+01,-7.990999759999999696e+02
-1.586015625000000000e+02,2.581640625000000000e+01,-7.980999759999999696e+02
-1.579218750000000000e+02,1.969921875000000000e+01,-8.020999759999999696e+02
-1.579218750000000000e+02,2.003906250000000000e+01,-8.015999759999999696e+02
-1.582617187500000000e+02,2.003906250000000000e+01,-8.020999759999999696e+02
-1.579218750000000000e+02,2.003906250000000000e+01,-7.975999759999999696e+02
-1.579218750000000000e+02,1.969921875000000000e+01,-7.970999759999999696e+02
-1.579218750000000000e+02,2.003906250000000000e+01,-7.965999759999999696e+02
-1.579218750000000000e+02,2.071875000000000000e+01,-8.015999759999999696e+02
-1.582617187500000000e+02,2.071875000000000000e+01,-8.020999759999999696e+02
-1.579218750000000000e+02,2.071875000000000000e+01,-8.005999759999999696e+02
-1.579218750000000000e+02,2.037890625000000000e+01,-8.000999759999999696e+02
-1.579218750000000000e+02,2.071875000000000000e+01,-7.995999759999999696e+02
-1.582617187500000000e+02,2.071875000000000000e+01,-7.980999759999999696e+02
-1.579218750000000000e+02,2.071875000000000000e+01,-7.975999759999999696e+02
-1.579218750000000000e+02,2.071875000000000000e+01,-7.965999759999999696e+02
-1.579218750000000000e+02,2.105859375000000000e+01,-8.010999759999999696e+02
-1.582617187500000000e+02,2.139843750000000000e+01,-8.020999759999999696e+02
-1.579218750000000000e+02,2.105859375000000000e+01,-7.990999759999999696e+02
-1.579218750000000000e+02,2.105859375000000000e+01,-7.980999759999999696e+02
-1.579218750000000000e+02,2.105859375000000000e+01,-7.960999759999999696e+02
-1.579218750000000000e+02,2.139843750000000000e+01,-7.955999759999999696e+02
-1.579218750000000000e+02,2.173828125000000000e+01,-7.950999759999999696e+02
-1.579218750000000000e+02,2.173828125000000000e+01,-7.940999759999999696e+02
-1.582617187500000000e+02,2.275781250000000000e+01,-7.940999759999999696e+02
-1.579218750000000000e+02,2.309765625000000000e+01,-7.940999759999999696e+02
-1.579218750000000000e+02,2.343750000000000000e+01,-7.945999759999999696e+02
-1.579218750000000000e+02,2.377734375000000000e+01,-8.020999759999999696e+02
-1.582617187500000000e+02,2.411718750000000000e+01,-8.020999759999999696e+02
-1.579218750000000000e+02,2.411718750000000000e+01,-8.015999759999999696e+02
-1.579218750000000000e+02,2.411718750000000000e+01,-7.945999759999999696e+02
-1.579218750000000000e+02,2.479687500000000000e+01,-8.015999759999999696e+02
-1.582617187500000000e+02,2.479687500000000000e+01,-8.020999759999999696e+02
-1.579218750000000000e+02,2.445703125000000000e+01,-7.950999759999999696e+02
-1.579218750000000000e+02,2.479687500000000000e+01,-7.955999759999999696e+02
-1.579218750000000000e+02,2.547656250000000000e+01,-8.015999759999999696e+02
-1.582617187500000000e+02,2.547656250000000000e+01,-8.010999759999999696e+02
-1.579218750000000000e+02,2.513671875000000000e+01,-7.970999759999999696e+02
-1.579218750000000000e+02,2.547656250000000000e+01,-7.975999759999999696e+02
-1.579218750000000000e+02,2.513671875000000000e+01,-7.960999759999999696e+02
-1.579218750000000000e+02,2.581640625000000000e+01,-8.010999759999999696e+02
-1.579218750000000000e+02,2.581640625000000000e+01,-8.000999759999999696e+02
-1.579218750000000000e+02,2.581640625000000000e+01,-7.990999759999999696e+02
-1.579218750000000000e+02,2.581640625000000000e+01,-7.980999759999999696e+02
-1.575820312500000000e+02,2.003906250000000000e+01,-8.020999759999999696e+02
-1.575820312500000000e+02,2.003906250000000000e+01,-7.970999759999999696e+02
-1.572421875000000000e+02,2.037890625000000000e+01,-8.020999759999999696e+02
-1.572421875000000000e+02,2.071875000000000000e+01,-8.015999759999999696e+02
-1.572421875000000000e+02,2.071875000000000000e+01,-8.005999759999999696e+02
-1.572421875000000000e+02,2.037890625000000000e+01,-8.000999759999999696e+02
-1.572421875000000000e+02,2.071875000000000000e+01,-7.995999759999999696e+02
-1.572421875000000000e+02,2.071875000000000000e+01,-7.975999759999999696e+02
-1.572421875000000000e+02,2.037890625000000000e+01,-7.970999759999999696e+02
-1.572421875000000000e+02,2.071875000000000000e+01,-7.965999759999999696e+02
-1.572421875000000000e+02,2.105859375000000000e+01,-8.010999759999999696e+02
-1.572421875000000000e+02,2.105859375000000000e+01,-7.990999759999999696e+02
-1.572421875000000000e+02,2.105859375000000000e+01,-7.980999759999999696e+02
-1.572421875000000000e+02,2.105859375000000000e+01,-7.960999759999999696e+02
-1.572421875000000000e+02,2.105859375000000000e+01,-7.950999759999999696e+02
-1.575820312500000000e+02,2.139843750000000000e+01,-7.950999759999999696e+02
-1.572421875000000000e+02,2.139843750000000000e+01,-7.945999759999999696e+02
-1.572421875000000000e+02,2.173828125000000000e+01,-7.940999759999999696e+02
-1.572421875000000000e+02,2.309765625000000000e+01,-8.020999759999999696e+02
-1.575820312500000000e+02,2.343750000000000000e+01,-8.020999759999999696e+02
-1.572421875000000000e+02,2.343750000000000000e+01,-8.015999759999999696e+02
-1.575820312500000000e+02,2.343750000000000000e+01,-7.940999759999999696e+02
-1.572421875000000000e+02,2.411718750000000000e+01,-8.015999759999999696e+02
-1.572421875000000000e+02,2.377734375000000000e+01,-7.940999759999999696e+02
-1.572421875000000000e+02,2.411718750000000000e+01,-7.945999759999999696e+02
-1.572421875000000000e+02,2.479687500000000000e+01,-8.015999759999999696e+02
-1.575820312500000000e+02,2.479687500000000000e+01,-7.950999759999999696e+02
-1.572421875000000000e+02,2.479687500000000000e+01,-7.945999759999999696e+02
-1.572421875000000000e+02,2.547656250000000000e+01,-8.015999759999999696e+02
-1.575820312500000000e+02,2.547656250000000000e+01,-7.970999759999999696e+02
-1.572421875000000000e+02,2.547656250000000000e+01,-7.965999759999999696e+02
-1.572421875000000000e+02,2.513671875000000000e+01,-7.960999759999999696e+02
-1.572421875000000000e+02,2.513671875000000000e+01,-7.950999759999999696e+02
-1.572421875000000000e+02,2.581640625000000000e+01,-8.010999759999999696e+02
-1.572421875000000000e+02,2.581640625000000000e+01,-8.000999759999999696e+02
-1.572421875000000000e+02,2.581640625000000000e+01,-7.990999759999999696e+02
-1.572421875000000000e+02,2.581640625000000000e+01,-7.980999759999999696e+02
-1.572421875000000000e+02,2.581640625000000000e+01,-7.970999759999999696e+02
-1.569023437500000000e+02,2.071875000000000000e+01,-8.020999759999999696e+02
-1.565625000000000000e+02,2.071875000000000000e+01,-8.005999759999999696e+02
-1.565625000000000000e+02,2.037890625000000000e+01,-8.000999759999999696e+02
-1.565625000000000000e+02,2.071875000000000000e+01,-7.995999759999999696e+02
-1.569023437500000000e+02,2.071875000000000000e+01,-7.970999759999999696e+02
-1.565625000000000000e+02,2.037890625000000000e+01,-7.960999759999999696e+02
-1.565625000000000000e+02,2.071875000000000000e+01,-7.965999759999999696e+02
-1.569023437500000000e+02,2.071875000000000000e+01,-7.960999759999999696e+02
-1.565625000000000000e+02,2.037890625000000000e+01,-7.950999759999999696e+02
-1.569023437500000000e+02,2.071875000000000000e+01,-7.950999759999999696e+02
-1.565625000000000000e+02,2.071875000000000000e+01,-7.945999759999999696e+02
-1.569023437500000000e+02,2.139843750000000000e+01,-8.020999759999999696e+02
-1.565625000000000000e+02,2.105859375000000000e+01,-8.010999759999999696e+02
-1.565625000000000000e+02,2.139843750000000000e+01,-8.015999759999999696e+02
-1.565625000000000000e+02,2.105859375000000000e+01,-7.990999759999999696e+02
-1.565625000000000000e+02,2.105859375000000000e+01,-7.980999759999999696e+02
-1.569023437500000000e+02,2.139843750000000000e+01,-7.970999759999999696e+02
-1.565625000000000000e+02,2.139843750000000000e+01,-7.975999759999999696e+02
-1.569023437500000000e+02,2.105859375000000000e+01,-7.965999759999999696e+02
-1.565625000000000000e+02,2.139843750000000000e+01,-7.965999759999999696e+02
-1.565625000000000000e+02,2.139843750000000000e+01,-7.945999759999999696e+02
-1.565625000000000000e+02,2.207812500000000000e+01,-8.015999759999999696e+02
-1.569023437500000000e+02,2.207812500000000000e+01,-8.020999759999999696e+02
-1.569023437500000000e+02,2.207812500000000000e+01,-7.970999759999999696e+02
-1.565625000000000000e+02,2.207812500000000000e+01,-7.975999759999999696e+02
-1.565625000000000000e+02,2.207812500000000000e+01,-7.965999759999999696e+02
-1.565625000000000000e+02,2.173828125000000000e+01,-7.940999759999999696e+02
-1.565625000000000000e+02,2.241796875000000000e+01,-8.020999759999999696e+02
-1.569023437500000000e+02,2.275781250000000000e+01,-7.970999759999999696e+02
-1.565625000000000000e+02,2.275781250000000000e+01,-7.975999759999999696e+02
-1.565625000000000000e+02,2.275781250000000000e+01,-7.965999759999999696e+02
-1.565625000000000000e+02,2.309765625000000000e+01,-8.020999759999999696e+02
-1.565625000000000000e+02,2.343750000000000000e+01,-8.015999759999999696e+02
-1.565625000000000000e+02,2.309765625000000000e+01,-7.970999759999999696e+02
-1.569023437500000000e+02,2.343750000000000000e+01,-7.940999759999999696e+02
-1.565625000000000000e+02,2.309765625000000000e+01,-7.940999759999999696e+02
-1.565625000000000000e+02,2.343750000000000000e+01,-7.945999759999999696e+02
-1.565625000000000000e+02,2.411718750000000000e+01,-8.015999759999999696e+02
-1.565625000000000000e+02,2.411718750000000000e+01,-7.945999759999999696e+02
-1.565625000000000000e+02,2.479687500000000000e+01,-8.015999759999999696e+02
-1.565625000000000000e+02,2.479687500000000000e+01,-7.945999759999999696e+02
-1.565625000000000000e+02,2.547656250000000000e+01,-8.015999759999999696e+02
-1.565625000000000000e+02,2.513671875000000000e+01,-7.960999759999999696e+02
-1.565625000000000000e+02,2.547656250000000000e+01,-7.965999759999999696e+02
-1.565625000000000000e+02,2.513671875000000000e+01,-7.950999759999999696e+02
-1.565625000000000000e+02,2.581640625000000000e+01,-8.010999759999999696e+02
-1.565625000000000000e+02,2.581640625000000000e+01,-8.000999759999999696e+02
-1.565625000000000000e+02,2.581640625000000000e+01,-7.990999759999999696e+02
-1.565625000000000000e+02,2.581640625000000000e+01,-7.980999759999999696e+02
-1.565625000000000000e+02,2.581640625000000000e+01,-7.970999759999999696e+02
-1.558828125000000000e+02,2.071875000000000000e+01,-8.005999759999999696e+02
-1.558828125000000000e+02,2.037890625000000000e+01,-8.000999759999999696e+02
-1.558828125000000000e+02,2.071875000000000000e+01,-7.995999759999999696e+02
-1.558828125000000000e+02,2.071875000000000000e+01,-7.965999759999999696e+02
-1.558828125000000000e+02,2.037890625000000000e+01,-7.960999759999999696e+02
-1.562226562500000000e+02,2.071875000000000000e+01,-7.950999759999999696e+02
-1.558828125000000000e+02,2.071875000000000000e+01,-7.955999759999999696e+02
-1.558828125000000000e+02,2.139843750000000000e+01,-8.015999759999999696e+02
-1.558828125000000000e+02,2.105859375000000000e+01,-8.010999759999999696e+02
-1.558828125000000000e+02,2.105859375000000000e+01,-7.990999759999999696e+02
-1.558828125000000000e+02,2.105859375000000000e+01,-7.980999759999999696e+02
-1.558828125000000000e+02,2.139843750000000000e+01,-7.975999759999999696e+02
-1.558828125000000000e+02,2.139843750000000000e+01,-7.965999759999999696e+02
-1.558828125000000000e+02,2.105859375000000000e+01,-7.950999759999999696e+02
-1.558828125000000000e+02,2.139843750000000000e+01,-7.945999759999999696e+02
-1.558828125000000000e+02,2.207812500000000000e+01,-8.015999759999999696e+02
-1.558828125000000000e+02,2.207812500000000000e+01,-7.975999759999999696e+02
-1.558828125000000000e+02,2.207812500000000000e+01,-7.965999759999999696e+02
-1.558828125000000000e+02,2.173828125000000000e+01,-7.940999759999999696e+02
-1.562226562500000000e+02,2.275781250000000000e+01,-8.020999759999999696e+02
-1.558828125000000000e+02,2.275781250000000000e+01,-8.015999759999999696e+02
-1.558828125000000000e+02,2.275781250000000000e+01,-7.975999759999999696e+02
-1.558828125000000000e+02,2.275781250000000000e+01,-7.965999759999999696e+02
-1.562226562500000000e+02,2.275781250000000000e+01,-7.940999759999999696e+02
-1.558828125000000000e+02,2.241796875000000000e+01,-7.940999759999999696e+02
-1.558828125000000000e+02,2.275781250000000000e+01,-7.945999759999999696e+02
-1.558828125000000000e+02,2.343750000000000000e+01,-8.015999759999999696e+02
-1.562226562500000000e+02,2.343750000000000000e+01,-7.970999759999999696e+02
-1.558828125000000000e+02,2.343750000000000000e+01,-7.975999759999999696e+02
-1.558828125000000000e+02,2.343750000000000000e+01,-7.965999759999999696e+02
-1.558828125000000000e+02,2.343750000000000000e+01,-7.945999759999999696e+02
-1.558828125000000000e+02,2.411718750000000000e+01,-8.015999759999999696e+02
-1.562226562500000000e+02,2.411718750000000000e+01,-7.970999759999999696e+02
-1.558828125000000000e+02,2.411718750000000000e+01,-7.975999759999999696e+02
-1.558828125000000000e+02,2.411718750000000000e+01,-7.965999759999999696e+02
-1.558828125000000000e+02,2.411718750000000000e+01,-7.945999759999999696e+02
-1.558828125000000000e+02,2.479687500000000000e+01,-8.015999759999999696e+02
-1.562226562500000000e+02,2.479687500000000000e+01,-7.970999759999999696e+02
-1.558828125000000000e+02,2.479687500000000000e+01,-7.975999759999999696e+02
-1.558828125000000000e+02,2.479687500000000000e+01,-7.965999759999999696e+02
-1.558828125000000000e+02,2.479687500000000000e+01,-7.945999759999999696e+02
-1.558828125000000000e+02,2.547656250000000000e+01,-8.015999759999999696e+02
-1.562226562500000000e+02,2.547656250000000000e+01,-7.970999759999999696e+02
-1.558828125000000000e+02,2.547656250000000000e+01,-7.975999759999999696e+02
-1.562226562500000000e+02,2.513671875000000000e+01,-7.965999759999999696e+02
-1.558828125000000000e+02,2.547656250000000000e+01,-7.965999759999999696e+02
-1.562226562500000000e+02,2.547656250000000000e+01,-7.960999759999999696e+02
-1.562226562500000000e+02,2.547656250000000000e+01,-7.950999759999999696e+02
-1.558828125000000000e+02,2.547656250000000000e+01,-7.945999759999999696e+02
-1.558828125000000000e+02,2.581640625000000000e+01,-8.010999759999999696e+02
-1.558828125000000000e+02,2.581640625000000000e+01,-8.000999759999999696e+02
-1.558828125000000000e+02,2.581640625000000000e+01,-7.990999759999999696e+02
-1.558828125000000000e+02,2.581640625000000000e+01,-7.980999759999999696e+02
-1.558828125000000000e+02,2.581640625000000000e+01,-7.960999759999999696e+02
-1.558828125000000000e+02,2.581640625000000000e+01,-7.950999759999999696e+02
-1.555429687500000000e+02,2.071875000000000000e+01,-8.000999759999999696e+02
-1.552031250000000000e+02,2.071875000000000000e+01,-7.965999759999999696e+02
-1.552031250000000000e+02,2.037890625000000000e+01,-7.960999759999999696e+02
-1.552031250000000000e+02,2.071875000000000000e+01,-7.955999759999999696e+02
-1.555429687500000000e+02,2.139843750000000000e+01,-8.010999759999999696e+02
-1.552031250000000000e+02,2.139843750000000000e+01,-8.005999759999999696e+02
-1.552031250000000000e+02,2.105859375000000000e+01,-8.000999759999999696e+02
-1.552031250000000000e+02,2.105859375000000000e+01,-7.990999759999999696e+02
-1.552031250000000000e+02,2.105859375000000000e+01,-7.980999759999999696e+02
-1.552031250000000000e+02,2.139843750000000000e+01,-7.975999759999999696e+02
-1.552031250000000000e+02,2.139843750000000000e+01,-7.965999759999999696e+02
-1.552031250000000000e+02,2.105859375000000000e+01,-7.950999759999999696e+02
-1.552031250000000000e+02,2.139843750000000000e+01,-7.945999759999999696e+02
-1.552031250000000000e+02,2.207812500000000000e+01,-8.015999759999999696e+02
-1.552031250000000000e+02,2.173828125000000000e+01,-8.010999759999999696e+02
-1.552031250000000000e+02,2.207812500000000000e+01,-7.975999759999999696e+02
-1.552031250000000000e+02,2.207812500000000000e+01,-7.965999759999999696e+02
-1.555429687500000000e+02,2.207812500000000000e+01,-7.940999759999999696e+02
-1.552031250000000000e+02,2.207812500000000000e+01,-7.945999759999999696e+02
-1.552031250000000000e+02,2.275781250000000000e+01,-8.015999759999999696e+02
-1.552031250000000000e+02,2.275781250000000000e+01,-7.975999759999999696e+02
-1.552031250000000000e+02,2.275781250000000000e+01,-7.965999759999999696e+02
-1.552031250000000000e+02,2.275781250000000000e+01,-7.945999759999999696e+02
-1.552031250000000000e+02,2.343750000000000000e+01,-8.015999759999999696e+02
-1.552031250000000000e+02,2.343750000000000000e+01,-7.975999759999999696e+02
-1.552031250000000000e+02,2.343750000000000000e+01,-7.965999759999999696e+02
-1.552031250000000000e+02,2.343750000000000000e+01,-7.945999759999999696e+02
-1.552031250000000000e+02,2.411718750000000000e+01,-8.015999759999999696e+02
-1.552031250000000000e+02,2.411718750000000000e+01,-7.975999759999999696e+02
-1.552031250000000000e+02,2.411718750000000000e+01,-7.965999759999999696e+02
-1.552031250000000000e+02,2.411718750000000000e+01,-7.945999759999999696e+02
-1.552031250000000000e+02,2.479687500000000000e+01,-8.015999759999999696e+02
-1.552031250000000000e+02,2.479687500000000000e+01,-7.975999759999999696e+02
-1.552031250000000000e+02,2.479687500000000000e+01,-7.965999759999999696e+02
-1.552031250000000000e+02,2.479687500000000000e+01,-7.945999759999999696e+02
-1.552031250000000000e+02,2.547656250000000000e+01,-8.015999759999999696e+02
-1.552031250000000000e+02,2.547656250000000000e+01,-7.975999759999999696e+02
-1.552031250000000000e+02,2.547656250000000000e+01,-7.965999759999999696e+02
-1.552031250000000000e+02,2.547656250000000000e+01,-7.945999759999999696e+02
-1.555429687500000000e+02,2.615625000000000000e+01,-8.010999759999999696e+02
-1.552031250000000000e+02,2.615625000000000000e+01,-8.015999759999999696e+02
-1.555429687500000000e+02,2.615625000000000000e+01,-8.000999759999999696e+02
-1.552031250000000000e+02,2.615625000000000000e+01,-7.995999759999999696e+02
-1.552031250000000000e+02,2.581640625000000000e+01,-7.990999759999999696e+02
-1.552031250000000000e+02,2.581640625000000000e+01,-7.980999759999999696e+02
-1.552031250000000000e+02,2.581640625000000000e+01,-7.960999759999999696e+02
-1.555429687500000000e+02,2.615625000000000000e+01,-7.950999759999999696e+02
-1.552031250000000000e+02,2.615625000000000000e+01,-7.955999759999999696e+02
-1.552031250000000000e+02,2.615625000000000000e+01,-7.945999759999999696e+02
-1.552031250000000000e+02,2.649609375000000000e+01,-8.010999759999999696e+02
-1.552031250000000000e+02,2.649609375000000000e+01,-8.000999759999999696e+02
-1.552031250000000000e+02,2.649609375000000000e+01,-7.950999759999999696e+02
-1.548632812500000000e+02,2.071875000000000000e+01,-7.960999759999999696e+02
-1.548632812500000000e+02,2.139843750000000000e+01,-8.000999759999999696e+02
-1.548632812500000000e+02,2.139843750000000000e+01,-7.990999759999999696e+02
-1.548632812500000000e+02,2.139843750000000000e+01,-7.980999759999999696e+02
-1.548632812500000000e+02,2.139843750000000000e+01,-7.960999759999999696e+02
-1.548632812500000000e+02,2.139843750000000000e+01,-7.950999759999999696e+02
-1.548632812500000000e+02,2.207812500000000000e+01,-8.010999759999999696e+02
-1.545234375000000000e+02,2.207812500000000000e+01,-8.005999759999999696e+02
-1.545234375000000000e+02,2.173828125000000000e+01,-8.000999759999999696e+02
-1.545234375000000000e+02,2.173828125000000000e+01,-7.990999759999999696e+02
-1.545234375000000000e+02,2.173828125000000000e+01,-7.980999759999999696e+02
-1.545234375000000000e+02,2.207812500000000000e+01,-7.975999759999999696e+02
-1.545234375000000000e+02,2.207812500000000000e+01,-7.965999759999999696e+02
-1.545234375000000000e+02,2.173828125000000000e+01,-7.960999759999999696e+02
-1.545234375000000000e+02,2.173828125000000000e+01,-7.950999759999999696e+02
-1.545234375000000000e+02,2.207812500000000000e+01,-7.945999759999999696e+02
-1.548632812500000000e+02,2.275781250000000000e+01,-8.010999759999999696e+02
-1.545234375000000000e+02,2.275781250000000000e+01,-8.005999759999999696e+02
-1.545234375000000000e+02,2.275781250000000000e+01,-7.975999759999999696e+02
-1.545234375000000000e+02,2.275781250000000000e+01,-7.965999759999999696e+02
-1.545234375000000000e+02,2.275781250000000000e+01,-7.945999759999999696e+02
-1.548632812500000000e+02,2.343750000000000000e+01,-8.010999759999999696e+02
-1.545234375000000000e+02,2.343750000000000000e+01,-8.005999759999999696e+02
-1.545234375000000000e+02,2.343750000000000000e+01,-7.975999759999999696e+02
-1.545234375000000000e+02,2.343750000000000000e+01,-7.965999759999999696e+02
-1.545234375000000000e+02,2.343750000000000000e+01,-7.945999759999999696e+02
-1.548632812500000000e+02,2.411718750000000000e+01,-8.010999759999999696e+02
-1.545234375000000000e+02,2.411718750000000000e+01,-8.005999759999999696e+02
-1.545234375000000000e+02,2.411718750000000000e+01,-7.975999759999999696e+02
-1.545234375000000000e+02,2.411718750000000000e+01,-7.965999759999999696e+02
-1.545234375000000000e+02,2.411718750000000000e+01,-7.945999759999999696e+02
-1.548632812500000000e+02,2.479687500000000000e+01,-8.010999759999999696e+02
-1.545234375000000000e+02,2.479687500000000000e+01,-8.005999759999999696e+02
-1.545234375000000000e+02,2.479687500000000000e+01,-7.975999759999999696e+02
-1.545234375000000000e+02,2.479687500000000000e+01,-7.965999759999999696e+02
-1.548632812500000000e+02,2.479687500000000000e+01,-7.950999759999999696e+02
-1.545234375000000000e+02,2.445703125000000000e+01,-7.950999759999999696e+02
-1.545234375000000000e+02,2.479687500000000000e+01,-7.955999759999999696e+02
-1.545234375000000000e+02,2.547656250000000000e+01,-8.015999759999999696e+02
-1.545234375000000000e+02,2.513671875000000000e+01,-8.010999759999999696e+02
-1.545234375000000000e+02,2.547656250000000000e+01,-7.975999759999999696e+02
-1.545234375000000000e+02,2.547656250000000000e+01,-7.965999759999999696e+02
-1.548632812500000000e+02,2.547656250000000000e+01,-7.950999759999999696e+02
-1.545234375000000000e+02,2.547656250000000000e+01,-7.955999759999999696e+02
-1.545234375000000000e+02,2.615625000000000000e+01,-8.015999759999999696e+02
-1.548632812500000000e+02,2.615625000000000000e+01,-7.990999759999999696e+02
-1.548632812500000000e+02,2.615625000000000000e+01,-7.980999759999999696e+02
-1.545234375000000000e+02,2.615625000000000000e+01,-7.975999759999999696e+02
-1.548632812500000000e+02,2.615625000000000000e+01,-7.960999759999999696e+02
-1.545234375000000000e+02,2.615625000000000000e+01,-7.965999759999999696e+02
-1.545234375000000000e+02,2.615625000000000000e+01,-7.955999759999999696e+02
-1.548632812500000000e+02,2.581640625000000000e+01,-7.955999759999999696e+02
-1.548632812500000000e+02,2.615625000000000000e+01,-7.950999759999999696e+02
-1.545234375000000000e+02,2.649609375000000000e+01,-8.010999759999999696e+02
-1.545234375000000000e+02,2.649609375000000000e+01,-8.000999759999999696e+02
-1.545234375000000000e+02,2.649609375000000000e+01,-7.990999759999999696e+02
-1.545234375000000000e+02,2.649609375000000000e+01,-7.980999759999999696e+02
-1.545234375000000000e+02,2.649609375000000000e+01,-7.960999759999999696e+02
-1.541835937500000000e+02,2.207812500000000000e+01,-8.000999759999999696e+02
-1.541835937500000000e+02,2.207812500000000000e+01,-7.990999759999999696e+02
-1.541835937500000000e+02,2.207812500000000000e+01,-7.980999759999999696e+02
-1.541835937500000000e+02,2.207812500000000000e+01,-7.960999759999999696e+02
-1.541835937500000000e+02,2.207812500000000000e+01,-7.950999759999999696e+02
-1.538437500000000000e+02,2.275781250000000000e+01,-8.005999759999999696e+02
-1.538437500000000000e+02,2.241796875000000000e+01,-8.000999759999999696e+02
-1.538437500000000000e+02,2.241796875000000000e+01,-7.990999759999999696e+02
-1.538437500000000000e+02,2.241796875000000000e+01,-7.980999759999999696e+02
-1.538437500000000000e+02,2.275781250000000000e+01,-7.975999759999999696e+02
-1.538437500000000000e+02,2.275781250000000000e+01,-7.965999759999999696e+02
-1.538437500000000000e+02,2.241796875000000000e+01,-7.960999759999999696e+02
-1.538437500000000000e+02,2.275781250000000000e+01,-7.955999759999999696e+02
-1.541835937500000000e+02,2.275781250000000000e+01,-7.950999759999999696e+02
-1.538437500000000000e+02,2.343750000000000000e+01,-8.005999759999999696e+02
-1.538437500000000000e+02,2.343750000000000000e+01,-7.975999759999999696e+02
-1.538437500000000000e+02,2.343750000000000000e+01,-7.965999759999999696e+02
-1.538437500000000000e+02,2.309765625000000000e+01,-7.950999759999999696e+02
-1.538437500000000000e+02,2.343750000000000000e+01,-7.945999759999999696e+02
-1.538437500000000000e+02,2.411718750000000000e+01,-8.005999759999999696e+02
-1.538437500000000000e+02,2.411718750000000000e+01,-7.975999759999999696e+02
-1.538437500000000000e+02,2.411718750000000000e+01,-7.965999759999999696e+02
-1.541835937500000000e+02,2.411718750000000000e+01,-7.950999759999999696e+02
-1.538437500000000000e+02,2.377734375000000000e+01,-7.950999759999999696e+02
-1.538437500000000000e+02,2.411718750000000000e+01,-7.955999759999999696e+02
-1.538437500000000000e+02,2.479687500000000000e+01,-8.005999759999999696e+02
-1.538437500000000000e+02,2.479687500000000000e+01,-7.975999759999999696e+02
-1.538437500000000000e+02,2.479687500000000000e+01,-7.965999759999999696e+02
-1.538437500000000000e+02,2.479687500000000000e+01,-7.955999759999999696e+02
-1.541835937500000000e+02,2.547656250000000000e+01,-8.010999759999999696e+02
-1.538437500000000000e+02,2.547656250000000000e+01,-8.005999759999999696e+02
-1.538437500000000000e+02,2.547656250000000000e+01,-7.975999759999999696e+02
-1.538437500000000000e+02,2.547656250000000000e+01,-7.965999759999999696e+02
-1.538437500000000000e+02,2.547656250000000000e+01,-7.955999759999999696e+02
-1.538437500000000000e+02,2.615625000000000000e+01,-8.015999759999999696e+02
-1.538437500000000000e+02,2.581640625000000000e+01,-8.010999759999999696e+02
-1.538437500000000000e+02,2.615625000000000000e+01,-7.975999759999999696e+02
-1.538437500000000000e+02,2.615625000000000000e+01,-7.965999759999999696e+02
-1.538437500000000000e+02,2.615625000000000000e+01,-7.955999759999999696e+02
-1.538437500000000000e+02,2.649609375000000000e+01,-8.010999759999999696e+02
-1.538437500000000000e+02,2.649609375000000000e+01,-8.000999759999999696e+02
-1.538437500000000000e+02,2.649609375000000000e+01,-7.990999759999999696e+02
-1.538437500000000000e+02,2.649609375000000000e+01,-7.980999759999999696e+02
-1.538437500000000000e+02,2.649609375000000000e+01,-7.960999759999999696e+02
-1.535039062500000000e+02,2.275781250000000000e+01,-8.000999759999999696e+02
-1.535039062500000000e+02,2.275781250000000000e+01,-7.990999759999999696e+02
-1.535039062500000000e+02,2.275781250000000000e+01,-7.980999759999999696e+02
-1.535039062500000000e+02,2.275781250000000000e+01,-7.960999759999999696e+02
-1.531640625000000000e+02,2.343750000000000000e+01,-8.005999759999999696e+02
-1.531640625000000000e+02,2.309765625000000000e+01,-8.000999759999999696e+02
-1.531640625000000000e+02,2.309765625000000000e+01,-7.990999759999999696e+02
-1.531640625000000000e+02,2.309765625000000000e+01,-7.980999759999999696e+02
-1.531640625000000000e+02,2.343750000000000000e+01,-7.975999759999999696e+02
-1.535039062500000000e+02,2.343750000000000000e+01,-7.960999759999999696e+02
-1.535039062500000000e+02,2.343750000000000000e+01,-7.950999759999999696e+02
-1.531640625000000000e+02,2.411718750000000000e+01,-8.005999759999999696e+02
-1.531640625000000000e+02,2.411718750000000000e+01,-7.975999759999999696e+02
-1.535039062500000000e+02,2.411718750000000000e+01,-7.960999759999999696e+02
-1.531640625000000000e+02,2.445703125000000000e+01,-8.000999759999999696e+02
-1.535039062500000000e+02,2.479687500000000000e+01,-8.000999759999999696e+02
-1.531640625000000000e+02,2.479687500000000000e+01,-7.995999759999999696e+02
-1.531640625000000000e+02,2.479687500000000000e+01,-7.975999759999999696e+02
-1.535039062500000000e+02,2.479687500000000000e+01,-7.960999759999999696e+02
-1.535039062500000000e+02,2.547656250000000000e+01,-8.000999759999999696e+02
-1.531640625000000000e+02,2.513671875000000000e+01,-7.990999759999999696e+02
-1.535039062500000000e+02,2.547656250000000000e+01,-7.990999759999999696e+02
-1.535039062500000000e+02,2.547656250000000000e+01,-7.980999759999999696e+02
-1.531640625000000000e+02,2.513671875000000000e+01,-7.980999759999999696e+02
-1.535039062500000000e+02,2.547656250000000000e+01,-7.960999759999999696e+02
-1.535039062500000000e+02,2.615625000000000000e+01,-8.010999759999999696e+02
-1.535039062500000000e+02,2.615625000000000000e+01,-8.000999759999999696e+02
-1.535039062500000000e+02,2.615625000000000000e+01,-7.990999759999999696e+02
-1.535039062500000000e+02,2.615625000000000000e+01,-7.980999759999999696e+02
-1.535039062500000000e+02,2.615625000000000000e+01,-7.960999759999999696e+02
-1.528242187500000000e+02,2.343750000000000000e+01,-8.000999759999999696e+02
-1.528242187500000000e+02,2.343750000000000000e+01,-7.990999759999999696e+02
-1.528242187500000000e+02,2.343750000000000000e+01,-7.980999759999999696e+02
-1.528242187500000000e+02,2.411718750000000000e+01,-8.000999759999999696e+02
-1.528242187500000000e+02,2.411718750000000000e+01,-7.990999759999999696e+02
-1.528242187500000000e+02,2.411718750000000000e+01,-7.980999759999999696e+02
-1.528242187500000000e+02,2.479687500000000000e+01,-7.990999759999999696e+02
-1.528242187500000000e+02,2.479687500000000000e+01,-7.980999759999999696e+02
