-1.546521874999999966e+02,-1.283004722500000128e+02,1.617000000000000000e+03
-1.546521874999999966e+02,-1.279293785000000128e+02,1.617500000000000000e+03
-1.550232812499999966e+02,-1.271871910000000128e+02,1.605000000000000000e+03
-1.550232812499999966e+02,-1.271871910000000128e+02,1.604000000000000000e+03
-1.550232812499999966e+02,-1.271871910000000128e+02,1.606000000000000000e+03
-1.550232812499999966e+02,-1.271871910000000128e+02,1.617000000000000000e+03
-1.546521874999999966e+02,-1.271871910000000128e+02,1.617500000000000000e+03
-1.546521874999999966e+02,-1.268160972500000128e+02,1.604000000000000000e+03
-1.546521874999999966e+02,-1.268160972500000128e+02,1.605000000000000000e+03
-1.546521874999999966e+02,-1.268160972500000128e+02,1.606000000000000000e+03
-1.550232812499999966e+02,-1.264450035000000128e+02,1.607000000000000000e+03
-1.546521874999999966e+02,-1.264450035000000128e+02,1.606500000000000000e+03
-1.550232812499999966e+02,-1.264450035000000128e+02,1.608000000000000000e+03
-1.546521874999999966e+02,-1.268160972500000128e+02,1.617000000000000000e+03
-1.546521874999999966e+02,-1.264450035000000128e+02,1.616500000000000000e+03
-1.546521874999999966e+02,-1.260739097500000128e+02,1.607000000000000000e+03
-1.550232812499999966e+02,-1.257028160000000128e+02,1.608000000000000000e+03
-1.546521874999999966e+02,-1.257028160000000128e+02,1.607500000000000000e+03
-1.550232812499999966e+02,-1.257028160000000128e+02,1.609000000000000000e+03
-1.550232812499999966e+02,-1.257028160000000128e+02,1.616000000000000000e+03
-1.546521874999999966e+02,-1.257028160000000128e+02,1.616500000000000000e+03
-1.546521874999999966e+02,-1.253317222500000128e+02,1.608000000000000000e+03
-1.550232812499999966e+02,-1.249606285000000128e+02,1.609000000000000000e+03
-1.546521874999999966e+02,-1.249606285000000128e+02,1.608500000000000000e+03
-1.550232812499999966e+02,-1.249606285000000128e+02,1.615000000000000000e+03
-1.546521874999999966e+02,-1.249606285000000128e+02,1.615500000000000000e+03
-1.546521874999999966e+02,-1.253317222500000128e+02,1.616000000000000000e+03
-1.546521874999999966e+02,-1.245895347500000128e+02,1.609000000000000000e+03
-1.546521874999999966e+02,-1.242184410000000128e+02,1.609500000000000000e+03
-1.546521874999999966e+02,-1.245895347500000128e+02,1.615000000000000000e+03
-1.546521874999999966e+02,-1.242184410000000128e+02,1.614500000000000000e+03
-1.546521874999999966e+02,-1.238473472500000128e+02,1.610000000000000000e+03
-1.546521874999999966e+02,-1.234762535000000128e+02,1.610500000000000000e+03
-1.546521874999999966e+02,-1.238473472500000128e+02,1.613000000000000000e+03
-1.546521874999999966e+02,-1.234762535000000128e+02,1.612500000000000000e+03
-1.546521874999999966e+02,-1.238473472500000128e+02,1.614000000000000000e+03
-1.550232812499999966e+02,-1.227340660000000128e+02,1.611000000000000000e+03
-1.546521874999999966e+02,-1.227340660000000128e+02,1.610500000000000000e+03
-1.550232812499999966e+02,-1.227340660000000128e+02,1.612000000000000000e+03
-1.546521874999999966e+02,-1.227340660000000128e+02,1.612500000000000000e+03
-1.546521874999999966e+02,-1.223629722500000128e+02,1.611000000000000000e+03
-1.546521874999999966e+02,-1.223629722500000128e+02,1.612000000000000000e+03
-1.542810937499999966e+02,-1.383200035000000128e+02,1.609000000000000000e+03
-1.539099999999999966e+02,-1.383200035000000128e+02,1.608500000000000000e+03
-1.539099999999999966e+02,-1.386910972500000128e+02,1.609000000000000000e+03
-1.539099999999999966e+02,-1.383200035000000128e+02,1.609500000000000000e+03
-1.542810937499999966e+02,-1.375778160000000128e+02,1.609000000000000000e+03
-1.539099999999999966e+02,-1.375778160000000128e+02,1.608500000000000000e+03
-1.539099999999999966e+02,-1.379489097500000128e+02,1.610000000000000000e+03
-1.542810937499999966e+02,-1.375778160000000128e+02,1.610000000000000000e+03
-1.539099999999999966e+02,-1.375778160000000128e+02,1.610500000000000000e+03
-1.542810937499999966e+02,-1.368356285000000128e+02,1.608000000000000000e+03
-1.539099999999999966e+02,-1.368356285000000128e+02,1.607500000000000000e+03
-1.539099999999999966e+02,-1.372067222500000128e+02,1.608000000000000000e+03
-1.539099999999999966e+02,-1.372067222500000128e+02,1.611000000000000000e+03
-1.542810937499999966e+02,-1.368356285000000128e+02,1.612000000000000000e+03
-1.539099999999999966e+02,-1.368356285000000128e+02,1.611500000000000000e+03
-1.539099999999999966e+02,-1.360934410000000128e+02,1.607500000000000000e+03
-1.539099999999999966e+02,-1.364645347500000128e+02,1.612000000000000000e+03
-1.539099999999999966e+02,-1.364645347500000128e+02,1.613000000000000000e+03
-1.539099999999999966e+02,-1.364645347500000128e+02,1.614000000000000000e+03
-1.539099999999999966e+02,-1.360934410000000128e+02,1.614500000000000000e+03
-1.539099999999999966e+02,-1.353512535000000128e+02,1.606500000000000000e+03
-1.539099999999999966e+02,-1.357223472500000128e+02,1.607000000000000000e+03
-1.539099999999999966e+02,-1.353512535000000128e+02,1.614500000000000000e+03
-1.542810937499999966e+02,-1.346090660000000128e+02,1.604000000000000000e+03
-1.539099999999999966e+02,-1.349801597500000128e+02,1.605000000000000000e+03
-1.542810937499999966e+02,-1.346090660000000128e+02,1.605000000000000000e+03
-1.539099999999999966e+02,-1.349801597500000128e+02,1.604000000000000000e+03
-1.539099999999999966e+02,-1.349801597500000128e+02,1.606000000000000000e+03
-1.539099999999999966e+02,-1.349801597500000128e+02,1.615000000000000000e+03
-1.539099999999999966e+02,-1.346090660000000128e+02,1.615500000000000000e+03
-1.539099999999999966e+02,-1.338668785000000128e+02,1.615500000000000000e+03
-1.539099999999999966e+02,-1.334957847500000128e+02,1.616000000000000000e+03
-1.539099999999999966e+02,-1.334957847500000128e+02,1.617000000000000000e+03
-1.539099999999999966e+02,-1.331246910000000128e+02,1.617500000000000000e+03
-1.539099999999999966e+02,-1.327535972500000128e+02,1.618000000000000000e+03
-1.542810937499999966e+02,-1.323825035000000128e+02,1.618000000000000000e+03
-1.542810937499999966e+02,-1.316403160000000128e+02,1.617000000000000000e+03
-1.539099999999999966e+02,-1.316403160000000128e+02,1.617500000000000000e+03
-1.539099999999999966e+02,-1.320114097500000128e+02,1.618000000000000000e+03
-1.542810937499999966e+02,-1.308981285000000128e+02,1.617000000000000000e+03
-1.539099999999999966e+02,-1.308981285000000128e+02,1.617500000000000000e+03
-1.539099999999999966e+02,-1.305270347500000128e+02,1.617000000000000000e+03
-1.539099999999999966e+02,-1.301559410000000128e+02,1.616500000000000000e+03
-1.539099999999999966e+02,-1.297848472500000128e+02,1.604000000000000000e+03
-1.542810937499999966e+02,-1.294137535000000128e+02,1.604000000000000000e+03
-1.539099999999999966e+02,-1.294137535000000128e+02,1.604500000000000000e+03
-1.539099999999999966e+02,-1.294137535000000128e+02,1.616500000000000000e+03
-1.539099999999999966e+02,-1.290426597500000128e+02,1.605000000000000000e+03
-1.542810937499999966e+02,-1.286715660000000128e+02,1.605000000000000000e+03
-1.542810937499999966e+02,-1.286715660000000128e+02,1.604000000000000000e+03
-1.539099999999999966e+02,-1.286715660000000128e+02,1.605500000000000000e+03
-1.539099999999999966e+02,-1.290426597500000128e+02,1.617000000000000000e+03
-1.542810937499999966e+02,-1.286715660000000128e+02,1.617000000000000000e+03
-1.539099999999999966e+02,-1.286715660000000128e+02,1.617500000000000000e+03
-1.539099999999999966e+02,-1.279293785000000128e+02,1.604500000000000000e+03
-1.539099999999999966e+02,-1.283004722500000128e+02,1.605000000000000000e+03
-1.542810937499999966e+02,-1.279293785000000128e+02,1.604000000000000000e+03
-1.539099999999999966e+02,-1.279293785000000128e+02,1.617500000000000000e+03
-1.539099999999999966e+02,-1.271871910000000128e+02,1.604500000000000000e+03
-1.542810937499999966e+02,-1.271871910000000128e+02,1.604000000000000000e+03
-1.539099999999999966e+02,-1.271871910000000128e+02,1.617500000000000000e+03
-1.539099999999999966e+02,-1.268160972500000128e+02,1.605000000000000000e+03
-1.539099999999999966e+02,-1.268160972500000128e+02,1.606000000000000000e+03
-1.539099999999999966e+02,-1.264450035000000128e+02,1.606500000000000000e+03
-1.542810937499999966e+02,-1.264450035000000128e+02,1.617000000000000000e+03
-1.539099999999999966e+02,-1.264450035000000128e+02,1.617500000000000000e+03
-1.539099999999999966e+02,-1.260739097500000128e+02,1.607000000000000000e+03
-1.539099999999999966e+02,-1.257028160000000128e+02,1.607500000000000000e+03
-1.542810937499999966e+02,-1.257028160000000128e+02,1.617000000000000000e+03
-1.539099999999999966e+02,-1.260739097500000128e+02,1.618000000000000000e+03
-1.542810937499999966e+02,-1.257028160000000128e+02,1.618000000000000000e+03
-1.539099999999999966e+02,-1.253317222500000128e+02,1.608000000000000000e+03
-1.539099999999999966e+02,-1.249606285000000128e+02,1.608500000000000000e+03
-1.542810937499999966e+02,-1.249606285000000128e+02,1.616000000000000000e+03
-1.542810937499999966e+02,-1.249606285000000128e+02,1.617000000000000000e+03
-1.542810937499999966e+02,-1.249606285000000128e+02,1.618000000000000000e+03
-1.539099999999999966e+02,-1.245895347500000128e+02,1.609000000000000000e+03
-1.539099999999999966e+02,-1.242184410000000128e+02,1.609500000000000000e+03
-1.542810937499999966e+02,-1.242184410000000128e+02,1.613000000000000000e+03
-1.539099999999999966e+02,-1.245895347500000128e+02,1.613000000000000000e+03
-1.539099999999999966e+02,-1.242184410000000128e+02,1.612500000000000000e+03
-1.539099999999999966e+02,-1.242184410000000128e+02,1.613500000000000000e+03
-1.542810937499999966e+02,-1.242184410000000128e+02,1.615000000000000000e+03
-1.539099999999999966e+02,-1.242184410000000128e+02,1.615500000000000000e+03
-1.539099999999999966e+02,-1.245895347500000128e+02,1.616000000000000000e+03
-1.539099999999999966e+02,-1.245895347500000128e+02,1.617000000000000000e+03
-1.542810937499999966e+02,-1.242184410000000128e+02,1.618000000000000000e+03
-1.539099999999999966e+02,-1.242184410000000128e+02,1.617500000000000000e+03
-1.539099999999999966e+02,-1.238473472500000128e+02,1.610000000000000000e+03
-1.539099999999999966e+02,-1.234762535000000128e+02,1.610500000000000000e+03
-1.539099999999999966e+02,-1.234762535000000128e+02,1.612500000000000000e+03
-1.539099999999999966e+02,-1.238473472500000128e+02,1.614000000000000000e+03
-1.539099999999999966e+02,-1.238473472500000128e+02,1.615000000000000000e+03
-1.539099999999999966e+02,-1.238473472500000128e+02,1.618000000000000000e+03
-1.539099999999999966e+02,-1.227340660000000128e+02,1.610500000000000000e+03
-1.539099999999999966e+02,-1.227340660000000128e+02,1.612500000000000000e+03
-1.539099999999999966e+02,-1.223629722500000128e+02,1.611000000000000000e+03
-1.539099999999999966e+02,-1.223629722500000128e+02,1.612000000000000000e+03
-1.535389062499999966e+02,-1.383200035000000128e+02,1.609000000000000000e+03
-1.535389062499999966e+02,-1.383200035000000128e+02,1.616000000000000000e+03
-1.531678124999999966e+02,-1.383200035000000128e+02,1.615500000000000000e+03
-1.531678124999999966e+02,-1.386910972500000128e+02,1.616000000000000000e+03
-1.531678124999999966e+02,-1.383200035000000128e+02,1.616500000000000000e+03
-1.535389062499999966e+02,-1.375778160000000128e+02,1.609000000000000000e+03
-1.535389062499999966e+02,-1.375778160000000128e+02,1.610000000000000000e+03
-1.535389062499999966e+02,-1.375778160000000128e+02,1.616000000000000000e+03
-1.531678124999999966e+02,-1.375778160000000128e+02,1.615500000000000000e+03
-1.531678124999999966e+02,-1.375778160000000128e+02,1.616500000000000000e+03
-1.531678124999999966e+02,-1.368356285000000128e+02,1.607500000000000000e+03
-1.531678124999999966e+02,-1.372067222500000128e+02,1.608000000000000000e+03
-1.531678124999999966e+02,-1.372067222500000128e+02,1.609000000000000000e+03
-1.531678124999999966e+02,-1.372067222500000128e+02,1.610000000000000000e+03
-1.535389062499999966e+02,-1.368356285000000128e+02,1.611000000000000000e+03
-1.531678124999999966e+02,-1.368356285000000128e+02,1.610500000000000000e+03
-1.535389062499999966e+02,-1.368356285000000128e+02,1.616000000000000000e+03
-1.531678124999999966e+02,-1.368356285000000128e+02,1.615500000000000000e+03
-1.531678124999999966e+02,-1.368356285000000128e+02,1.616500000000000000e+03
-1.535389062499999966e+02,-1.360934410000000128e+02,1.607000000000000000e+03
-1.531678124999999966e+02,-1.360934410000000128e+02,1.606500000000000000e+03
-1.531678124999999966e+02,-1.364645347500000128e+02,1.607000000000000000e+03
-1.531678124999999966e+02,-1.364645347500000128e+02,1.611000000000000000e+03
-1.531678124999999966e+02,-1.364645347500000128e+02,1.612000000000000000e+03
-1.531678124999999966e+02,-1.364645347500000128e+02,1.613000000000000000e+03
-1.531678124999999966e+02,-1.364645347500000128e+02,1.614000000000000000e+03
-1.531678124999999966e+02,-1.360934410000000128e+02,1.614500000000000000e+03
-1.531678124999999966e+02,-1.364645347500000128e+02,1.616000000000000000e+03
-1.535389062499999966e+02,-1.353512535000000128e+02,1.604000000000000000e+03
-1.531678124999999966e+02,-1.357223472500000128e+02,1.605000000000000000e+03
-1.535389062499999966e+02,-1.353512535000000128e+02,1.605000000000000000e+03
-1.531678124999999966e+02,-1.357223472500000128e+02,1.604000000000000000e+03
-1.531678124999999966e+02,-1.357223472500000128e+02,1.606000000000000000e+03
-1.535389062499999966e+02,-1.353512535000000128e+02,1.606000000000000000e+03
-1.531678124999999966e+02,-1.353512535000000128e+02,1.614500000000000000e+03
-1.531678124999999966e+02,-1.349801597500000128e+02,1.615000000000000000e+03
-1.531678124999999966e+02,-1.346090660000000128e+02,1.615500000000000000e+03
-1.531678124999999966e+02,-1.342379722500000128e+02,1.616000000000000000e+03
-1.535389062499999966e+02,-1.338668785000000128e+02,1.616000000000000000e+03
-1.531678124999999966e+02,-1.342379722500000128e+02,1.617000000000000000e+03
-1.535389062499999966e+02,-1.338668785000000128e+02,1.617000000000000000e+03
-1.531678124999999966e+02,-1.338668785000000128e+02,1.617500000000000000e+03
-1.531678124999999966e+02,-1.334957847500000128e+02,1.618000000000000000e+03
-1.535389062499999966e+02,-1.331246910000000128e+02,1.618000000000000000e+03
-1.535389062499999966e+02,-1.316403160000000128e+02,1.618000000000000000e+03
-1.535389062499999966e+02,-1.308981285000000128e+02,1.618000000000000000e+03
-1.531678124999999966e+02,-1.305270347500000128e+02,1.604000000000000000e+03
-1.535389062499999966e+02,-1.301559410000000128e+02,1.604000000000000000e+03
-1.531678124999999966e+02,-1.301559410000000128e+02,1.604500000000000000e+03
-1.535389062499999966e+02,-1.301559410000000128e+02,1.617000000000000000e+03
-1.535389062499999966e+02,-1.301559410000000128e+02,1.618000000000000000e+03
-1.535389062499999966e+02,-1.294137535000000128e+02,1.605000000000000000e+03
-1.531678124999999966e+02,-1.297848472500000128e+02,1.605000000000000000e+03
-1.531678124999999966e+02,-1.294137535000000128e+02,1.605500000000000000e+03
-1.535389062499999966e+02,-1.294137535000000128e+02,1.617000000000000000e+03
-1.531678124999999966e+02,-1.294137535000000128e+02,1.617500000000000000e+03
-1.531678124999999966e+02,-1.297848472500000128e+02,1.618000000000000000e+03
-1.531678124999999966e+02,-1.286715660000000128e+02,1.605500000000000000e+03
-1.531678124999999966e+02,-1.286715660000000128e+02,1.617500000000000000e+03
-1.535389062499999966e+02,-1.279293785000000128e+02,1.605000000000000000e+03
-1.531678124999999966e+02,-1.279293785000000128e+02,1.605500000000000000e+03
-1.531678124999999966e+02,-1.279293785000000128e+02,1.617500000000000000e+03
-1.531678124999999966e+02,-1.271871910000000128e+02,1.604500000000000000e+03
-1.531678124999999966e+02,-1.275582847500000128e+02,1.605000000000000000e+03
-1.531678124999999966e+02,-1.271871910000000128e+02,1.617500000000000000e+03
-1.531678124999999966e+02,-1.268160972500000128e+02,1.605000000000000000e+03
-1.535389062499999966e+02,-1.264450035000000128e+02,1.606000000000000000e+03
-1.531678124999999966e+02,-1.264450035000000128e+02,1.605500000000000000e+03
-1.531678124999999966e+02,-1.268160972500000128e+02,1.618000000000000000e+03
-1.535389062499999966e+02,-1.264450035000000128e+02,1.618000000000000000e+03
-1.531678124999999966e+02,-1.260739097500000128e+02,1.606000000000000000e+03
-1.531678124999999966e+02,-1.260739097500000128e+02,1.607000000000000000e+03
-1.531678124999999966e+02,-1.257028160000000128e+02,1.607500000000000000e+03
-1.531678124999999966e+02,-1.253317222500000128e+02,1.608000000000000000e+03
-1.531678124999999966e+02,-1.249606285000000128e+02,1.608500000000000000e+03
-1.531678124999999966e+02,-1.245895347500000128e+02,1.609000000000000000e+03
-1.531678124999999966e+02,-1.242184410000000128e+02,1.609500000000000000e+03
-1.531678124999999966e+02,-1.245895347500000128e+02,1.613000000000000000e+03
-1.531678124999999966e+02,-1.242184410000000128e+02,1.612500000000000000e+03
-1.531678124999999966e+02,-1.242184410000000128e+02,1.613500000000000000e+03
-1.535389062499999966e+02,-1.242184410000000128e+02,1.616000000000000000e+03
-1.535389062499999966e+02,-1.242184410000000128e+02,1.617000000000000000e+03
-1.531678124999999966e+02,-1.238473472500000128e+02,1.610000000000000000e+03
-1.531678124999999966e+02,-1.234762535000000128e+02,1.610500000000000000e+03
-1.531678124999999966e+02,-1.234762535000000128e+02,1.612500000000000000e+03
-1.535389062499999966e+02,-1.234762535000000128e+02,1.614000000000000000e+03
-1.531678124999999966e+02,-1.234762535000000128e+02,1.613500000000000000e+03
-1.535389062499999966e+02,-1.234762535000000128e+02,1.615000000000000000e+03
-1.531678124999999966e+02,-1.234762535000000128e+02,1.615500000000000000e+03
-1.531678124999999966e+02,-1.238473472500000128e+02,1.616000000000000000e+03
-1.531678124999999966e+02,-1.238473472500000128e+02,1.617000000000000000e+03
-1.535389062499999966e+02,-1.234762535000000128e+02,1.618000000000000000e+03
-1.531678124999999966e+02,-1.234762535000000128e+02,1.617500000000000000e+03
-1.531678124999999966e+02,-1.227340660000000128e+02,1.610500000000000000e+03
-1.531678124999999966e+02,-1.227340660000000128e+02,1.612500000000000000e+03
-1.531678124999999966e+02,-1.231051597500000128e+02,1.614000000000000000e+03
-1.535389062499999966e+02,-1.227340660000000128e+02,1.615000000000000000e+03
-1.531678124999999966e+02,-1.227340660000000128e+02,1.614500000000000000e+03
-1.531678124999999966e+02,-1.227340660000000128e+02,1.615500000000000000e+03
-1.531678124999999966e+02,-1.231051597500000128e+02,1.618000000000000000e+03
-1.535389062499999966e+02,-1.219918785000000128e+02,1.611000000000000000e+03
-1.531678124999999966e+02,-1.219918785000000128e+02,1.610500000000000000e+03
-1.535389062499999966e+02,-1.219918785000000128e+02,1.612000000000000000e+03
-1.531678124999999966e+02,-1.219918785000000128e+02,1.612500000000000000e+03
-1.531678124999999966e+02,-1.223629722500000128e+02,1.615000000000000000e+03
-1.531678124999999966e+02,-1.216207847500000128e+02,1.611000000000000000e+03
-1.531678124999999966e+02,-1.216207847500000128e+02,1.612000000000000000e+03
-1.527967187499999966e+02,-1.390621910000000128e+02,1.616000000000000000e+03
-1.524256249999999966e+02,-1.390621910000000128e+02,1.615500000000000000e+03
-1.524256249999999966e+02,-1.394332847500000128e+02,1.616000000000000000e+03
-1.524256249999999966e+02,-1.390621910000000128e+02,1.616500000000000000e+03
-1.524256249999999966e+02,-1.383200035000000128e+02,1.615500000000000000e+03
-1.524256249999999966e+02,-1.383200035000000128e+02,1.616500000000000000e+03
-1.524256249999999966e+02,-1.375778160000000128e+02,1.615500000000000000e+03
-1.524256249999999966e+02,-1.379489097500000128e+02,1.617000000000000000e+03
-1.527967187499999966e+02,-1.375778160000000128e+02,1.617000000000000000e+03
-1.524256249999999966e+02,-1.375778160000000128e+02,1.617500000000000000e+03
-1.527967187499999966e+02,-1.368356285000000128e+02,1.606000000000000000e+03
-1.524256249999999966e+02,-1.368356285000000128e+02,1.605500000000000000e+03
-1.524256249999999966e+02,-1.372067222500000128e+02,1.606000000000000000e+03
-1.524256249999999966e+02,-1.372067222500000128e+02,1.607000000000000000e+03
-1.527967187499999966e+02,-1.368356285000000128e+02,1.607000000000000000e+03
-1.524256249999999966e+02,-1.368356285000000128e+02,1.607500000000000000e+03
-1.527967187499999966e+02,-1.368356285000000128e+02,1.608000000000000000e+03
-1.527967187499999966e+02,-1.368356285000000128e+02,1.609000000000000000e+03
-1.527967187499999966e+02,-1.368356285000000128e+02,1.610000000000000000e+03
-1.524256249999999966e+02,-1.368356285000000128e+02,1.615500000000000000e+03
-1.527967187499999966e+02,-1.368356285000000128e+02,1.617000000000000000e+03
-1.524256249999999966e+02,-1.368356285000000128e+02,1.617500000000000000e+03
-1.524256249999999966e+02,-1.364645347500000128e+02,1.604000000000000000e+03
-1.524256249999999966e+02,-1.360934410000000128e+02,1.604500000000000000e+03
-1.527967187499999966e+02,-1.360934410000000128e+02,1.604000000000000000e+03
-1.527967187499999966e+02,-1.360934410000000128e+02,1.606000000000000000e+03
-1.524256249999999966e+02,-1.360934410000000128e+02,1.605500000000000000e+03
-1.524256249999999966e+02,-1.364645347500000128e+02,1.608000000000000000e+03
-1.524256249999999966e+02,-1.364645347500000128e+02,1.609000000000000000e+03
-1.524256249999999966e+02,-1.364645347500000128e+02,1.610000000000000000e+03
-1.524256249999999966e+02,-1.364645347500000128e+02,1.611000000000000000e+03
-1.524256249999999966e+02,-1.364645347500000128e+02,1.612000000000000000e+03
-1.524256249999999966e+02,-1.364645347500000128e+02,1.613000000000000000e+03
-1.527967187499999966e+02,-1.360934410000000128e+02,1.614000000000000000e+03
-1.524256249999999966e+02,-1.360934410000000128e+02,1.613500000000000000e+03
-1.527967187499999966e+02,-1.360934410000000128e+02,1.616000000000000000e+03
-1.524256249999999966e+02,-1.360934410000000128e+02,1.615500000000000000e+03
-1.527967187499999966e+02,-1.360934410000000128e+02,1.617000000000000000e+03
-1.524256249999999966e+02,-1.364645347500000128e+02,1.618000000000000000e+03
-1.527967187499999966e+02,-1.360934410000000128e+02,1.618000000000000000e+03
-1.524256249999999966e+02,-1.357223472500000128e+02,1.605000000000000000e+03
-1.524256249999999966e+02,-1.357223472500000128e+02,1.614000000000000000e+03
-1.524256249999999966e+02,-1.353512535000000128e+02,1.614500000000000000e+03
-1.527967187499999966e+02,-1.353512535000000128e+02,1.616000000000000000e+03
-1.524256249999999966e+02,-1.353512535000000128e+02,1.615500000000000000e+03
-1.527967187499999966e+02,-1.353512535000000128e+02,1.617000000000000000e+03
-1.527967187499999966e+02,-1.353512535000000128e+02,1.618000000000000000e+03
-1.524256249999999966e+02,-1.349801597500000128e+02,1.615000000000000000e+03
-1.527967187499999966e+02,-1.346090660000000128e+02,1.616000000000000000e+03
-1.527967187499999966e+02,-1.346090660000000128e+02,1.617000000000000000e+03
-1.527967187499999966e+02,-1.346090660000000128e+02,1.618000000000000000e+03
-1.527967187499999966e+02,-1.338668785000000128e+02,1.618000000000000000e+03
-1.524256249999999966e+02,-1.312692222500000128e+02,1.604000000000000000e+03
-1.527967187499999966e+02,-1.308981285000000128e+02,1.604000000000000000e+03
-1.524256249999999966e+02,-1.308981285000000128e+02,1.604500000000000000e+03
-1.527967187499999966e+02,-1.301559410000000128e+02,1.605000000000000000e+03
-1.524256249999999966e+02,-1.305270347500000128e+02,1.605000000000000000e+03
-1.524256249999999966e+02,-1.301559410000000128e+02,1.605500000000000000e+03
-1.527967187499999966e+02,-1.294137535000000128e+02,1.606000000000000000e+03
-1.524256249999999966e+02,-1.297848472500000128e+02,1.606000000000000000e+03
-1.524256249999999966e+02,-1.294137535000000128e+02,1.606500000000000000e+03
-1.527967187499999966e+02,-1.294137535000000128e+02,1.618000000000000000e+03
-1.527967187499999966e+02,-1.286715660000000128e+02,1.606000000000000000e+03
-1.524256249999999966e+02,-1.286715660000000128e+02,1.606500000000000000e+03
-1.527967187499999966e+02,-1.286715660000000128e+02,1.618000000000000000e+03
-1.524256249999999966e+02,-1.279293785000000128e+02,1.605500000000000000e+03
-1.524256249999999966e+02,-1.283004722500000128e+02,1.606000000000000000e+03
-1.527967187499999966e+02,-1.279293785000000128e+02,1.618000000000000000e+03
-1.527967187499999966e+02,-1.271871910000000128e+02,1.605000000000000000e+03
-1.524256249999999966e+02,-1.271871910000000128e+02,1.605500000000000000e+03
-1.527967187499999966e+02,-1.271871910000000128e+02,1.618000000000000000e+03
-1.524256249999999966e+02,-1.264450035000000128e+02,1.604500000000000000e+03
-1.527967187499999966e+02,-1.264450035000000128e+02,1.605000000000000000e+03
-1.524256249999999966e+02,-1.268160972500000128e+02,1.605000000000000000e+03
-1.524256249999999966e+02,-1.260739097500000128e+02,1.605000000000000000e+03
-1.524256249999999966e+02,-1.260739097500000128e+02,1.606000000000000000e+03
-1.527967187499999966e+02,-1.257028160000000128e+02,1.607000000000000000e+03
-1.524256249999999966e+02,-1.257028160000000128e+02,1.606500000000000000e+03
-1.524256249999999966e+02,-1.253317222500000128e+02,1.607000000000000000e+03
-1.524256249999999966e+02,-1.253317222500000128e+02,1.608000000000000000e+03
-1.524256249999999966e+02,-1.249606285000000128e+02,1.608500000000000000e+03
-1.524256249999999966e+02,-1.245895347500000128e+02,1.609000000000000000e+03
-1.524256249999999966e+02,-1.242184410000000128e+02,1.609500000000000000e+03
-1.524256249999999966e+02,-1.245895347500000128e+02,1.613000000000000000e+03
-1.524256249999999966e+02,-1.242184410000000128e+02,1.612500000000000000e+03
-1.524256249999999966e+02,-1.242184410000000128e+02,1.613500000000000000e+03
-1.527967187499999966e+02,-1.234762535000000128e+02,1.610000000000000000e+03
-1.524256249999999966e+02,-1.234762535000000128e+02,1.609500000000000000e+03
-1.524256249999999966e+02,-1.234762535000000128e+02,1.612500000000000000e+03
-1.524256249999999966e+02,-1.234762535000000128e+02,1.613500000000000000e+03
-1.527967187499999966e+02,-1.234762535000000128e+02,1.616000000000000000e+03
-1.527967187499999966e+02,-1.234762535000000128e+02,1.617000000000000000e+03
-1.524256249999999966e+02,-1.231051597500000128e+02,1.610000000000000000e+03
-1.524256249999999966e+02,-1.227340660000000128e+02,1.610500000000000000e+03
-1.524256249999999966e+02,-1.227340660000000128e+02,1.612500000000000000e+03
-1.524256249999999966e+02,-1.231051597500000128e+02,1.614000000000000000e+03
-1.524256249999999966e+02,-1.227340660000000128e+02,1.614500000000000000e+03
-1.527967187499999966e+02,-1.227340660000000128e+02,1.616000000000000000e+03
-1.524256249999999966e+02,-1.227340660000000128e+02,1.616500000000000000e+03
-1.524256249999999966e+02,-1.231051597500000128e+02,1.617000000000000000e+03
-1.524256249999999966e+02,-1.231051597500000128e+02,1.618000000000000000e+03
-1.524256249999999966e+02,-1.219918785000000128e+02,1.610500000000000000e+03
-1.527967187499999966e+02,-1.219918785000000128e+02,1.612000000000000000e+03
-1.524256249999999966e+02,-1.223629722500000128e+02,1.612000000000000000e+03
-1.524256249999999966e+02,-1.219918785000000128e+02,1.611500000000000000e+03
-1.524256249999999966e+02,-1.223629722500000128e+02,1.615000000000000000e+03
-1.524256249999999966e+02,-1.223629722500000128e+02,1.616000000000000000e+03
-1.527967187499999966e+02,-1.212496910000000128e+02,1.611000000000000000e+03
-1.524256249999999966e+02,-1.212496910000000128e+02,1.610500000000000000e+03
-1.524256249999999966e+02,-1.212496910000000128e+02,1.611500000000000000e+03
-1.524256249999999966e+02,-1.208785972500000128e+02,1.611000000000000000e+03
-1.520545312499999966e+02,-1.390621910000000128e+02,1.616000000000000000e+03
-1.516834374999999966e+02,-1.383200035000000128e+02,1.615500000000000000e+03
-1.516834374999999966e+02,-1.386910972500000128e+02,1.616000000000000000e+03
-1.516834374999999966e+02,-1.383200035000000128e+02,1.616500000000000000e+03
-1.516834374999999966e+02,-1.375778160000000128e+02,1.615500000000000000e+03
-1.520545312499999966e+02,-1.375778160000000128e+02,1.617000000000000000e+03
-1.516834374999999966e+02,-1.375778160000000128e+02,1.616500000000000000e+03
-1.520545312499999966e+02,-1.368356285000000128e+02,1.606000000000000000e+03
-1.516834374999999966e+02,-1.368356285000000128e+02,1.606500000000000000e+03
-1.516834374999999966e+02,-1.372067222500000128e+02,1.607000000000000000e+03
-1.516834374999999966e+02,-1.372067222500000128e+02,1.608000000000000000e+03
-1.520545312499999966e+02,-1.368356285000000128e+02,1.608000000000000000e+03
-1.516834374999999966e+02,-1.368356285000000128e+02,1.608500000000000000e+03
-1.516834374999999966e+02,-1.368356285000000128e+02,1.615500000000000000e+03
-1.516834374999999966e+02,-1.372067222500000128e+02,1.617000000000000000e+03
-1.516834374999999966e+02,-1.368356285000000128e+02,1.617500000000000000e+03
-1.516834374999999966e+02,-1.364645347500000128e+02,1.604000000000000000e+03
-1.516834374999999966e+02,-1.360934410000000128e+02,1.604500000000000000e+03
-1.520545312499999966e+02,-1.360934410000000128e+02,1.606000000000000000e+03
-1.516834374999999966e+02,-1.364645347500000128e+02,1.607000000000000000e+03
-1.520545312499999966e+02,-1.360934410000000128e+02,1.607000000000000000e+03
-1.516834374999999966e+02,-1.360934410000000128e+02,1.607500000000000000e+03
-1.516834374999999966e+02,-1.360934410000000128e+02,1.608500000000000000e+03
-1.520545312499999966e+02,-1.360934410000000128e+02,1.609000000000000000e+03
-1.520545312499999966e+02,-1.360934410000000128e+02,1.610000000000000000e+03
-1.520545312499999966e+02,-1.360934410000000128e+02,1.611000000000000000e+03
-1.516834374999999966e+02,-1.360934410000000128e+02,1.611500000000000000e+03
-1.516834374999999966e+02,-1.364645347500000128e+02,1.612000000000000000e+03
-1.516834374999999966e+02,-1.364645347500000128e+02,1.613000000000000000e+03
-1.516834374999999966e+02,-1.360934410000000128e+02,1.613500000000000000e+03
-1.516834374999999966e+02,-1.360934410000000128e+02,1.615500000000000000e+03
-1.516834374999999966e+02,-1.364645347500000128e+02,1.618000000000000000e+03
-1.516834374999999966e+02,-1.357223472500000128e+02,1.605000000000000000e+03
-1.516834374999999966e+02,-1.357223472500000128e+02,1.606000000000000000e+03
-1.516834374999999966e+02,-1.357223472500000128e+02,1.607000000000000000e+03
-1.516834374999999966e+02,-1.357223472500000128e+02,1.609000000000000000e+03
-1.516834374999999966e+02,-1.357223472500000128e+02,1.610000000000000000e+03
-1.516834374999999966e+02,-1.357223472500000128e+02,1.611000000000000000e+03
-1.520545312499999966e+02,-1.353512535000000128e+02,1.614000000000000000e+03
-1.516834374999999966e+02,-1.353512535000000128e+02,1.613500000000000000e+03
-1.516834374999999966e+02,-1.353512535000000128e+02,1.615500000000000000e+03
-1.516834374999999966e+02,-1.349801597500000128e+02,1.614000000000000000e+03
-1.516834374999999966e+02,-1.349801597500000128e+02,1.615000000000000000e+03
-1.516834374999999966e+02,-1.327535972500000128e+02,1.604000000000000000e+03
-1.520545312499999966e+02,-1.323825035000000128e+02,1.604000000000000000e+03
-1.516834374999999966e+02,-1.323825035000000128e+02,1.604500000000000000e+03
-1.516834374999999966e+02,-1.316403160000000128e+02,1.604500000000000000e+03
-1.520545312499999966e+02,-1.316403160000000128e+02,1.604000000000000000e+03
-1.520545312499999966e+02,-1.308981285000000128e+02,1.605000000000000000e+03
-1.516834374999999966e+02,-1.312692222500000128e+02,1.605000000000000000e+03
-1.516834374999999966e+02,-1.308981285000000128e+02,1.605500000000000000e+03
-1.520545312499999966e+02,-1.301559410000000128e+02,1.606000000000000000e+03
-1.516834374999999966e+02,-1.305270347500000128e+02,1.606000000000000000e+03
-1.516834374999999966e+02,-1.301559410000000128e+02,1.606500000000000000e+03
-1.516834374999999966e+02,-1.294137535000000128e+02,1.606500000000000000e+03
-1.516834374999999966e+02,-1.286715660000000128e+02,1.606500000000000000e+03
-1.520545312499999966e+02,-1.279293785000000128e+02,1.606000000000000000e+03
-1.516834374999999966e+02,-1.279293785000000128e+02,1.606500000000000000e+03
-1.516834374999999966e+02,-1.271871910000000128e+02,1.605500000000000000e+03
-1.516834374999999966e+02,-1.275582847500000128e+02,1.606000000000000000e+03
-1.520545312499999966e+02,-1.264450035000000128e+02,1.605000000000000000e+03
-1.516834374999999966e+02,-1.264450035000000128e+02,1.605500000000000000e+03
-1.516834374999999966e+02,-1.260739097500000128e+02,1.606000000000000000e+03
-1.516834374999999966e+02,-1.257028160000000128e+02,1.606500000000000000e+03
-1.516834374999999966e+02,-1.253317222500000128e+02,1.607000000000000000e+03
-1.516834374999999966e+02,-1.253317222500000128e+02,1.608000000000000000e+03
-1.516834374999999966e+02,-1.249606285000000128e+02,1.608500000000000000e+03
-1.516834374999999966e+02,-1.245895347500000128e+02,1.609000000000000000e+03
-1.516834374999999966e+02,-1.242184410000000128e+02,1.609500000000000000e+03
-1.516834374999999966e+02,-1.245895347500000128e+02,1.613000000000000000e+03
-1.516834374999999966e+02,-1.242184410000000128e+02,1.612500000000000000e+03
-1.516834374999999966e+02,-1.242184410000000128e+02,1.613500000000000000e+03
-1.520545312499999966e+02,-1.242184410000000128e+02,1.618000000000000000e+03
-1.516834374999999966e+02,-1.245895347500000128e+02,1.618000000000000000e+03
-1.516834374999999966e+02,-1.242184410000000128e+02,1.617500000000000000e+03
-1.516834374999999966e+02,-1.234762535000000128e+02,1.609500000000000000e+03
-1.516834374999999966e+02,-1.234762535000000128e+02,1.612500000000000000e+03
-1.516834374999999966e+02,-1.234762535000000128e+02,1.613500000000000000e+03
-1.520545312499999966e+02,-1.234762535000000128e+02,1.618000000000000000e+03
-1.516834374999999966e+02,-1.234762535000000128e+02,1.617500000000000000e+03
-1.520545312499999966e+02,-1.227340660000000128e+02,1.610000000000000000e+03
-1.516834374999999966e+02,-1.227340660000000128e+02,1.609500000000000000e+03
-1.516834374999999966e+02,-1.227340660000000128e+02,1.612500000000000000e+03
-1.516834374999999966e+02,-1.231051597500000128e+02,1.614000000000000000e+03
-1.520545312499999966e+02,-1.227340660000000128e+02,1.615000000000000000e+03
-1.516834374999999966e+02,-1.231051597500000128e+02,1.615000000000000000e+03
-1.516834374999999966e+02,-1.227340660000000128e+02,1.615500000000000000e+03
-1.520545312499999966e+02,-1.227340660000000128e+02,1.617000000000000000e+03
-1.516834374999999966e+02,-1.227340660000000128e+02,1.617500000000000000e+03
-1.520545312499999966e+02,-1.219918785000000128e+02,1.610000000000000000e+03
-1.516834374999999966e+02,-1.219918785000000128e+02,1.609500000000000000e+03
-1.520545312499999966e+02,-1.219918785000000128e+02,1.612000000000000000e+03
-1.516834374999999966e+02,-1.219918785000000128e+02,1.612500000000000000e+03
-1.516834374999999966e+02,-1.223629722500000128e+02,1.616000000000000000e+03
-1.516834374999999966e+02,-1.223629722500000128e+02,1.617000000000000000e+03
-1.516834374999999966e+02,-1.216207847500000128e+02,1.610000000000000000e+03
-1.516834374999999966e+02,-1.212496910000000128e+02,1.610500000000000000e+03
-1.516834374999999966e+02,-1.216207847500000128e+02,1.612000000000000000e+03
-1.516834374999999966e+02,-1.212496910000000128e+02,1.611500000000000000e+03
-1.520545312499999966e+02,-1.205075035000000128e+02,1.611000000000000000e+03
-1.516834374999999966e+02,-1.205075035000000128e+02,1.610500000000000000e+03
-1.516834374999999966e+02,-1.205075035000000128e+02,1.611500000000000000e+03
-1.516834374999999966e+02,-1.201364097500000128e+02,1.611000000000000000e+03
-1.513123437499999966e+02,-1.383200035000000128e+02,1.616000000000000000e+03
-1.513123437499999966e+02,-1.375778160000000128e+02,1.616000000000000000e+03
-1.513123437499999966e+02,-1.368356285000000128e+02,1.607000000000000000e+03
-1.509412499999999966e+02,-1.368356285000000128e+02,1.607500000000000000e+03
-1.509412499999999966e+02,-1.372067222500000128e+02,1.608000000000000000e+03
-1.509412499999999966e+02,-1.368356285000000128e+02,1.608500000000000000e+03
-1.513123437499999966e+02,-1.368356285000000128e+02,1.616000000000000000e+03
-1.513123437499999966e+02,-1.368356285000000128e+02,1.617000000000000000e+03
-1.509412499999999966e+02,-1.364645347500000128e+02,1.604000000000000000e+03
-1.509412499999999966e+02,-1.360934410000000128e+02,1.604500000000000000e+03
-1.509412499999999966e+02,-1.360934410000000128e+02,1.607500000000000000e+03
-1.509412499999999966e+02,-1.364645347500000128e+02,1.609000000000000000e+03
-1.513123437499999966e+02,-1.360934410000000128e+02,1.609000000000000000e+03
-1.509412499999999966e+02,-1.360934410000000128e+02,1.609500000000000000e+03
-1.513123437499999966e+02,-1.360934410000000128e+02,1.611000000000000000e+03
-1.509412499999999966e+02,-1.360934410000000128e+02,1.610500000000000000e+03
-1.509412499999999966e+02,-1.364645347500000128e+02,1.611000000000000000e+03
-1.509412499999999966e+02,-1.364645347500000128e+02,1.612000000000000000e+03
-1.513123437499999966e+02,-1.360934410000000128e+02,1.613000000000000000e+03
-1.509412499999999966e+02,-1.360934410000000128e+02,1.612500000000000000e+03
-1.513123437499999966e+02,-1.360934410000000128e+02,1.616000000000000000e+03
-1.513123437499999966e+02,-1.360934410000000128e+02,1.617000000000000000e+03
-1.513123437499999966e+02,-1.360934410000000128e+02,1.618000000000000000e+03
-1.509412499999999966e+02,-1.357223472500000128e+02,1.605000000000000000e+03
-1.513123437499999966e+02,-1.353512535000000128e+02,1.606000000000000000e+03
-1.509412499999999966e+02,-1.353512535000000128e+02,1.605500000000000000e+03
-1.513123437499999966e+02,-1.353512535000000128e+02,1.607000000000000000e+03
-1.509412499999999966e+02,-1.353512535000000128e+02,1.607500000000000000e+03
-1.509412499999999966e+02,-1.357223472500000128e+02,1.610000000000000000e+03
-1.509412499999999966e+02,-1.357223472500000128e+02,1.613000000000000000e+03
-1.509412499999999966e+02,-1.353512535000000128e+02,1.613500000000000000e+03
-1.513123437499999966e+02,-1.353512535000000128e+02,1.616000000000000000e+03
-1.513123437499999966e+02,-1.353512535000000128e+02,1.617000000000000000e+03
-1.513123437499999966e+02,-1.353512535000000128e+02,1.618000000000000000e+03
-1.509412499999999966e+02,-1.349801597500000128e+02,1.606000000000000000e+03
-1.509412499999999966e+02,-1.349801597500000128e+02,1.607000000000000000e+03
-1.509412499999999966e+02,-1.349801597500000128e+02,1.614000000000000000e+03
-1.513123437499999966e+02,-1.346090660000000128e+02,1.615000000000000000e+03
-1.509412499999999966e+02,-1.346090660000000128e+02,1.614500000000000000e+03
-1.513123437499999966e+02,-1.346090660000000128e+02,1.616000000000000000e+03
-1.513123437499999966e+02,-1.346090660000000128e+02,1.617000000000000000e+03
-1.513123437499999966e+02,-1.346090660000000128e+02,1.618000000000000000e+03
-1.509412499999999966e+02,-1.342379722500000128e+02,1.615000000000000000e+03
-1.509412499999999966e+02,-1.342379722500000128e+02,1.616000000000000000e+03
-1.509412499999999966e+02,-1.338668785000000128e+02,1.616500000000000000e+03
-1.513123437499999966e+02,-1.338668785000000128e+02,1.617000000000000000e+03
-1.513123437499999966e+02,-1.338668785000000128e+02,1.618000000000000000e+03
-1.509412499999999966e+02,-1.334957847500000128e+02,1.604000000000000000e+03
-1.513123437499999966e+02,-1.331246910000000128e+02,1.604000000000000000e+03
-1.509412499999999966e+02,-1.331246910000000128e+02,1.604500000000000000e+03
-1.513123437499999966e+02,-1.331246910000000128e+02,1.617000000000000000e+03
-1.509412499999999966e+02,-1.331246910000000128e+02,1.616500000000000000e+03
-1.513123437499999966e+02,-1.331246910000000128e+02,1.618000000000000000e+03
-1.509412499999999966e+02,-1.323825035000000128e+02,1.604500000000000000e+03
-1.509412499999999966e+02,-1.327535972500000128e+02,1.617000000000000000e+03
-1.509412499999999966e+02,-1.327535972500000128e+02,1.618000000000000000e+03
-1.509412499999999966e+02,-1.316403160000000128e+02,1.604500000000000000e+03
-1.509412499999999966e+02,-1.312692222500000128e+02,1.605000000000000000e+03
-1.513123437499999966e+02,-1.308981285000000128e+02,1.606000000000000000e+03
-1.509412499999999966e+02,-1.312692222500000128e+02,1.606000000000000000e+03
-1.509412499999999966e+02,-1.308981285000000128e+02,1.606500000000000000e+03
-1.513123437499999966e+02,-1.308981285000000128e+02,1.617000000000000000e+03
-1.509412499999999966e+02,-1.312692222500000128e+02,1.617000000000000000e+03
-1.509412499999999966e+02,-1.308981285000000128e+02,1.616500000000000000e+03
-1.513123437499999966e+02,-1.308981285000000128e+02,1.618000000000000000e+03
-1.509412499999999966e+02,-1.312692222500000128e+02,1.618000000000000000e+03
-1.509412499999999966e+02,-1.301559410000000128e+02,1.606500000000000000e+03
-1.509412499999999966e+02,-1.305270347500000128e+02,1.617000000000000000e+03
-1.509412499999999966e+02,-1.301559410000000128e+02,1.617500000000000000e+03
-1.513123437499999966e+02,-1.301559410000000128e+02,1.618000000000000000e+03
-1.509412499999999966e+02,-1.297848472500000128e+02,1.607000000000000000e+03
-1.513123437499999966e+02,-1.294137535000000128e+02,1.607000000000000000e+03
-1.509412499999999966e+02,-1.294137535000000128e+02,1.607500000000000000e+03
-1.509412499999999966e+02,-1.297848472500000128e+02,1.618000000000000000e+03
-1.513123437499999966e+02,-1.286715660000000128e+02,1.607000000000000000e+03
-1.509412499999999966e+02,-1.286715660000000128e+02,1.607500000000000000e+03
-1.509412499999999966e+02,-1.279293785000000128e+02,1.606500000000000000e+03
-1.509412499999999966e+02,-1.283004722500000128e+02,1.607000000000000000e+03
-1.513123437499999966e+02,-1.271871910000000128e+02,1.606000000000000000e+03
-1.509412499999999966e+02,-1.271871910000000128e+02,1.606500000000000000e+03
-1.513123437499999966e+02,-1.264450035000000128e+02,1.606000000000000000e+03
-1.509412499999999966e+02,-1.264450035000000128e+02,1.606500000000000000e+03
-1.509412499999999966e+02,-1.257028160000000128e+02,1.606500000000000000e+03
-1.509412499999999966e+02,-1.253317222500000128e+02,1.607000000000000000e+03
-1.509412499999999966e+02,-1.253317222500000128e+02,1.608000000000000000e+03
-1.509412499999999966e+02,-1.249606285000000128e+02,1.608500000000000000e+03
-1.513123437499999966e+02,-1.249606285000000128e+02,1.617000000000000000e+03
-1.509412499999999966e+02,-1.253317222500000128e+02,1.617000000000000000e+03
-1.509412499999999966e+02,-1.249606285000000128e+02,1.616500000000000000e+03
-1.513123437499999966e+02,-1.249606285000000128e+02,1.618000000000000000e+03
-1.509412499999999966e+02,-1.253317222500000128e+02,1.618000000000000000e+03
-1.509412499999999966e+02,-1.245895347500000128e+02,1.609000000000000000e+03
-1.509412499999999966e+02,-1.242184410000000128e+02,1.609500000000000000e+03
-1.509412499999999966e+02,-1.245895347500000128e+02,1.613000000000000000e+03
-1.509412499999999966e+02,-1.242184410000000128e+02,1.612500000000000000e+03
-1.509412499999999966e+02,-1.242184410000000128e+02,1.613500000000000000e+03
-1.513123437499999966e+02,-1.242184410000000128e+02,1.617000000000000000e+03
-1.509412499999999966e+02,-1.242184410000000128e+02,1.616500000000000000e+03
-1.509412499999999966e+02,-1.234762535000000128e+02,1.609500000000000000e+03
-1.509412499999999966e+02,-1.234762535000000128e+02,1.612500000000000000e+03
-1.509412499999999966e+02,-1.234762535000000128e+02,1.613500000000000000e+03
-1.513123437499999966e+02,-1.234762535000000128e+02,1.617000000000000000e+03
-1.509412499999999966e+02,-1.234762535000000128e+02,1.616500000000000000e+03
-1.509412499999999966e+02,-1.227340660000000128e+02,1.609500000000000000e+03
-1.509412499999999966e+02,-1.227340660000000128e+02,1.612500000000000000e+03
-1.509412499999999966e+02,-1.231051597500000128e+02,1.614000000000000000e+03
-1.509412499999999966e+02,-1.231051597500000128e+02,1.615000000000000000e+03
-1.509412499999999966e+02,-1.227340660000000128e+02,1.615500000000000000e+03
-1.513123437499999966e+02,-1.227340660000000128e+02,1.617000000000000000e+03
-1.509412499999999966e+02,-1.227340660000000128e+02,1.616500000000000000e+03
-1.509412499999999966e+02,-1.219918785000000128e+02,1.609500000000000000e+03
-1.509412499999999966e+02,-1.219918785000000128e+02,1.612500000000000000e+03
-1.509412499999999966e+02,-1.223629722500000128e+02,1.616000000000000000e+03
-1.513123437499999966e+02,-1.212496910000000128e+02,1.610000000000000000e+03
-1.509412499999999966e+02,-1.212496910000000128e+02,1.609500000000000000e+03
-1.509412499999999966e+02,-1.216207847500000128e+02,1.612000000000000000e+03
-1.509412499999999966e+02,-1.212496910000000128e+02,1.611500000000000000e+03
-1.509412499999999966e+02,-1.208785972500000128e+02,1.610000000000000000e+03
-1.509412499999999966e+02,-1.208785972500000128e+02,1.611000000000000000e+03
-1.513123437499999966e+02,-1.205075035000000128e+02,1.611000000000000000e+03
-1.505701562499999966e+02,-1.368356285000000128e+02,1.608000000000000000e+03
-1.505701562499999966e+02,-1.368356285000000128e+02,1.611000000000000000e+03
-1.501990624999999966e+02,-1.368356285000000128e+02,1.610500000000000000e+03
-1.501990624999999966e+02,-1.372067222500000128e+02,1.611000000000000000e+03
-1.501990624999999966e+02,-1.368356285000000128e+02,1.611500000000000000e+03
-1.505701562499999966e+02,-1.360934410000000128e+02,1.604000000000000000e+03
-1.505701562499999966e+02,-1.360934410000000128e+02,1.608000000000000000e+03
-1.501990624999999966e+02,-1.364645347500000128e+02,1.609000000000000000e+03
-1.501990624999999966e+02,-1.360934410000000128e+02,1.608500000000000000e+03
-1.501990624999999966e+02,-1.364645347500000128e+02,1.610000000000000000e+03
-1.505701562499999966e+02,-1.360934410000000128e+02,1.610000000000000000e+03
-1.501990624999999966e+02,-1.364645347500000128e+02,1.612000000000000000e+03
-1.501990624999999966e+02,-1.360934410000000128e+02,1.612500000000000000e+03
-1.505701562499999966e+02,-1.353512535000000128e+02,1.605000000000000000e+03
-1.505701562499999966e+02,-1.353512535000000128e+02,1.604000000000000000e+03
-1.505701562499999966e+02,-1.353512535000000128e+02,1.608000000000000000e+03
-1.501990624999999966e+02,-1.353512535000000128e+02,1.608500000000000000e+03
-1.501990624999999966e+02,-1.357223472500000128e+02,1.613000000000000000e+03
-1.501990624999999966e+02,-1.353512535000000128e+02,1.613500000000000000e+03
-1.501990624999999966e+02,-1.346090660000000128e+02,1.604500000000000000e+03
-1.501990624999999966e+02,-1.349801597500000128e+02,1.605000000000000000e+03
-1.505701562499999966e+02,-1.346090660000000128e+02,1.604000000000000000e+03
-1.501990624999999966e+02,-1.349801597500000128e+02,1.606000000000000000e+03
-1.505701562499999966e+02,-1.346090660000000128e+02,1.607000000000000000e+03
-1.501990624999999966e+02,-1.346090660000000128e+02,1.606500000000000000e+03
-1.501990624999999966e+02,-1.346090660000000128e+02,1.607500000000000000e+03
-1.501990624999999966e+02,-1.349801597500000128e+02,1.608000000000000000e+03
-1.505701562499999966e+02,-1.346090660000000128e+02,1.614000000000000000e+03
-1.501990624999999966e+02,-1.346090660000000128e+02,1.613500000000000000e+03
-1.501990624999999966e+02,-1.338668785000000128e+02,1.604500000000000000e+03
-1.505701562499999966e+02,-1.338668785000000128e+02,1.604000000000000000e+03
-1.501990624999999966e+02,-1.342379722500000128e+02,1.607000000000000000e+03
-1.501990624999999966e+02,-1.342379722500000128e+02,1.614000000000000000e+03
-1.501990624999999966e+02,-1.342379722500000128e+02,1.615000000000000000e+03
-1.505701562499999966e+02,-1.338668785000000128e+02,1.616000000000000000e+03
-1.501990624999999966e+02,-1.338668785000000128e+02,1.615500000000000000e+03
-1.501990624999999966e+02,-1.331246910000000128e+02,1.604500000000000000e+03
-1.501990624999999966e+02,-1.334957847500000128e+02,1.616000000000000000e+03
-1.501990624999999966e+02,-1.331246910000000128e+02,1.616500000000000000e+03
-1.501990624999999966e+02,-1.323825035000000128e+02,1.604500000000000000e+03
-1.505701562499999966e+02,-1.323825035000000128e+02,1.617000000000000000e+03
-1.501990624999999966e+02,-1.323825035000000128e+02,1.616500000000000000e+03
