-1.536593780000000038e+02,-1.232249979999999994e+02,-2.787349855225409669e+02
-1.536593780000000038e+02,-1.226781229999999994e+02,-2.837349852766393496e+02
-1.539328155000000038e+02,-1.226781229999999994e+02,-2.793599854918032861e+02
-1.536593780000000038e+02,-1.226781229999999994e+02,-2.787349855225409669e+02
-1.536593780000000038e+02,-1.221312479999999994e+02,-2.837349852766393496e+02
-1.539328155000000038e+02,-1.221312479999999994e+02,-2.793599854918032861e+02
-1.536593780000000038e+02,-1.221312479999999994e+02,-2.787349855225409669e+02
-1.536593780000000038e+02,-1.215843729999999994e+02,-2.837349852766393496e+02
-1.539328155000000038e+02,-1.215843729999999994e+02,-2.793599854918032861e+02
-1.536593780000000038e+02,-1.215843729999999994e+02,-2.787349855225409669e+02
-1.539328155000000038e+02,-1.210374979999999994e+02,-2.831099853073770305e+02
-1.536593780000000038e+02,-1.210374979999999994e+02,-2.837349852766393496e+02
-1.539328155000000038e+02,-1.210374979999999994e+02,-2.793599854918032861e+02
-1.536593780000000038e+02,-1.210374979999999994e+02,-2.787349855225409669e+02
-1.539328155000000038e+02,-1.204906229999999994e+02,-2.831099853073770305e+02
-1.536593780000000038e+02,-1.204906229999999994e+02,-2.837349852766393496e+02
-1.536593780000000038e+02,-1.207640604999999994e+02,-2.793599854918032861e+02
-1.536593780000000038e+02,-1.204906229999999994e+02,-2.799849854610655484e+02
-1.536593780000000038e+02,-1.202171854999999994e+02,-2.831099853073770305e+02
-1.539328155000000038e+02,-1.199437479999999994e+02,-2.818599853688524490e+02
-1.536593780000000038e+02,-1.199437479999999994e+02,-2.824849853381147682e+02
-1.536593780000000038e+02,-1.199437479999999994e+02,-2.799849854610655484e+02
-1.536593780000000038e+02,-1.196703104999999994e+02,-2.818599853688524490e+02
-1.536593780000000038e+02,-1.196703104999999994e+02,-2.806099854303278676e+02
-1.533859405000000038e+02,-1.248656229999999994e+02,-2.806099854303278676e+02
-1.531125030000000038e+02,-1.248656229999999994e+02,-2.812349853995901867e+02
-1.531125030000000038e+02,-1.251390604999999994e+02,-2.806099854303278676e+02
-1.531125030000000038e+02,-1.248656229999999994e+02,-2.799849854610655484e+02
-1.533859405000000038e+02,-1.243187479999999994e+02,-2.818599853688524490e+02
-1.531125030000000038e+02,-1.243187479999999994e+02,-2.824849853381147682e+02
-1.531125030000000038e+02,-1.245921854999999994e+02,-2.818599853688524490e+02
-1.531125030000000038e+02,-1.243187479999999994e+02,-2.799849854610655484e+02
-1.531125030000000038e+02,-1.237718729999999994e+02,-2.837349852766393496e+02
-1.531125030000000038e+02,-1.240453104999999994e+02,-2.831099853073770305e+02
-1.531125030000000038e+02,-1.240453104999999994e+02,-2.793599854918032861e+02
-1.533859405000000038e+02,-1.237718729999999994e+02,-2.793599854918032861e+02
-1.531125030000000038e+02,-1.237718729999999994e+02,-2.787349855225409669e+02
-1.531125030000000038e+02,-1.232249979999999994e+02,-2.837349852766393496e+02
-1.531125030000000038e+02,-1.234984354999999994e+02,-2.781099855532787046e+02
-1.533859405000000038e+02,-1.232249979999999994e+02,-2.781099855532787046e+02
-1.531125030000000038e+02,-1.232249979999999994e+02,-2.774849855840163855e+02
-1.531125030000000038e+02,-1.226781229999999994e+02,-2.837349852766393496e+02
-1.533859405000000038e+02,-1.226781229999999994e+02,-2.781099855532787046e+02
-1.531125030000000038e+02,-1.226781229999999994e+02,-2.774849855840163855e+02
-1.531125030000000038e+02,-1.221312479999999994e+02,-2.837349852766393496e+02
-1.533859405000000038e+02,-1.221312479999999994e+02,-2.781099855532787046e+02
-1.531125030000000038e+02,-1.221312479999999994e+02,-2.774849855840163855e+02
-1.533859405000000038e+02,-1.221312479999999994e+02,-2.756099856762294849e+02
-1.531125030000000038e+02,-1.221312479999999994e+02,-2.762349856454918040e+02
-1.531125030000000038e+02,-1.224046854999999994e+02,-2.756099856762294849e+02
-1.531125030000000038e+02,-1.215843729999999994e+02,-2.837349852766393496e+02
-1.533859405000000038e+02,-1.215843729999999994e+02,-2.781099855532787046e+02
-1.531125030000000038e+02,-1.215843729999999994e+02,-2.774849855840163855e+02
-1.533859405000000038e+02,-1.215843729999999994e+02,-2.756099856762294849e+02
-1.531125030000000038e+02,-1.215843729999999994e+02,-2.762349856454918040e+02
-1.531125030000000038e+02,-1.210374979999999994e+02,-2.837349852766393496e+02
-1.533859405000000038e+02,-1.210374979999999994e+02,-2.781099855532787046e+02
-1.531125030000000038e+02,-1.213109354999999994e+02,-2.768599856147540663e+02
-1.533859405000000038e+02,-1.210374979999999994e+02,-2.768599856147540663e+02
-1.533859405000000038e+02,-1.210374979999999994e+02,-2.756099856762294849e+02
-1.531125030000000038e+02,-1.204906229999999994e+02,-2.837349852766393496e+02
-1.533859405000000038e+02,-1.204906229999999994e+02,-2.793599854918032861e+02
-1.533859405000000038e+02,-1.204906229999999994e+02,-2.781099855532787046e+02
-1.531125030000000038e+02,-1.204906229999999994e+02,-2.774849855840163855e+02
-1.531125030000000038e+02,-1.207640604999999994e+02,-2.768599856147540663e+02
-1.533859405000000038e+02,-1.204906229999999994e+02,-2.756099856762294849e+02
-1.531125030000000038e+02,-1.204906229999999994e+02,-2.762349856454918040e+02
-1.533859405000000038e+02,-1.199437479999999994e+02,-2.831099853073770305e+02
-1.531125030000000038e+02,-1.199437479999999994e+02,-2.837349852766393496e+02
-1.531125030000000038e+02,-1.202171854999999994e+02,-2.793599854918032861e+02
-1.531125030000000038e+02,-1.199437479999999994e+02,-2.799849854610655484e+02
-1.531125030000000038e+02,-1.202171854999999994e+02,-2.781099855532787046e+02
-1.533859405000000038e+02,-1.199437479999999994e+02,-2.756099856762294849e+02
-1.531125030000000038e+02,-1.199437479999999994e+02,-2.762349856454918040e+02
-1.531125030000000038e+02,-1.196703104999999994e+02,-2.831099853073770305e+02
-1.531125030000000038e+02,-1.196703104999999994e+02,-2.818599853688524490e+02
-1.531125030000000038e+02,-1.196703104999999994e+02,-2.806099854303278676e+02
-1.531125030000000038e+02,-1.196703104999999994e+02,-2.756099856762294849e+02
-1.528390655000000038e+02,-1.254124979999999994e+02,-2.806099854303278676e+02
-1.525656280000000038e+02,-1.254124979999999994e+02,-2.812349853995901867e+02
-1.525656280000000038e+02,-1.256859354999999994e+02,-2.806099854303278676e+02
-1.525656280000000038e+02,-1.254124979999999994e+02,-2.799849854610655484e+02
-1.528390655000000038e+02,-1.248656229999999994e+02,-2.818599853688524490e+02
-1.525656280000000038e+02,-1.248656229999999994e+02,-2.824849853381147682e+02
-1.525656280000000038e+02,-1.251390604999999994e+02,-2.818599853688524490e+02
-1.525656280000000038e+02,-1.248656229999999994e+02,-2.799849854610655484e+02
-1.528390655000000038e+02,-1.243187479999999994e+02,-2.831099853073770305e+02
-1.525656280000000038e+02,-1.243187479999999994e+02,-2.837349852766393496e+02
-1.525656280000000038e+02,-1.245921854999999994e+02,-2.831099853073770305e+02
-1.525656280000000038e+02,-1.245921854999999994e+02,-2.793599854918032861e+02
-1.528390655000000038e+02,-1.243187479999999994e+02,-2.793599854918032861e+02
-1.525656280000000038e+02,-1.243187479999999994e+02,-2.787349855225409669e+02
-1.525656280000000038e+02,-1.237718729999999994e+02,-2.837349852766393496e+02
-1.525656280000000038e+02,-1.240453104999999994e+02,-2.781099855532787046e+02
-1.528390655000000038e+02,-1.237718729999999994e+02,-2.781099855532787046e+02
-1.525656280000000038e+02,-1.237718729999999994e+02,-2.774849855840163855e+02
-1.525656280000000038e+02,-1.232249979999999994e+02,-2.837349852766393496e+02
-1.525656280000000038e+02,-1.232249979999999994e+02,-2.774849855840163855e+02
-1.528390655000000038e+02,-1.232249979999999994e+02,-2.756099856762294849e+02
-1.525656280000000038e+02,-1.232249979999999994e+02,-2.762349856454918040e+02
-1.525656280000000038e+02,-1.234984354999999994e+02,-2.756099856762294849e+02
-1.528390655000000038e+02,-1.226781229999999994e+02,-2.843599852459016120e+02
-1.525656280000000038e+02,-1.226781229999999994e+02,-2.849849852151639311e+02
-1.525656280000000038e+02,-1.229515604999999994e+02,-2.843599852459016120e+02
-1.525656280000000038e+02,-1.229515604999999994e+02,-2.768599856147540663e+02
-1.528390655000000038e+02,-1.226781229999999994e+02,-2.768599856147540663e+02
-1.528390655000000038e+02,-1.226781229999999994e+02,-2.756099856762294849e+02
-1.525656280000000038e+02,-1.224046854999999994e+02,-2.843599852459016120e+02
-1.525656280000000038e+02,-1.221312479999999994e+02,-2.837349852766393496e+02
-1.528390655000000038e+02,-1.221312479999999994e+02,-2.768599856147540663e+02
-1.525656280000000038e+02,-1.215843729999999994e+02,-2.837349852766393496e+02
-1.528390655000000038e+02,-1.215843729999999994e+02,-2.768599856147540663e+02
-1.525656280000000038e+02,-1.210374979999999994e+02,-2.837349852766393496e+02
-1.525656280000000038e+02,-1.204906229999999994e+02,-2.837349852766393496e+02
-1.528390655000000038e+02,-1.204906229999999994e+02,-2.768599856147540663e+02
-1.525656280000000038e+02,-1.199437479999999994e+02,-2.837349852766393496e+02
-1.528390655000000038e+02,-1.199437479999999994e+02,-2.818599853688524490e+02
-1.525656280000000038e+02,-1.202171854999999994e+02,-2.818599853688524490e+02
-1.525656280000000038e+02,-1.199437479999999994e+02,-2.824849853381147682e+02
-1.525656280000000038e+02,-1.199437479999999994e+02,-2.812349853995901867e+02
-1.528390655000000038e+02,-1.199437479999999994e+02,-2.793599854918032861e+02
-1.528390655000000038e+02,-1.199437479999999994e+02,-2.781099855532787046e+02
-1.528390655000000038e+02,-1.199437479999999994e+02,-2.768599856147540663e+02
-1.525656280000000038e+02,-1.196703104999999994e+02,-2.831099853073770305e+02
-1.525656280000000038e+02,-1.196703104999999994e+02,-2.806099854303278676e+02
-1.525656280000000038e+02,-1.196703104999999994e+02,-2.793599854918032861e+02
-1.525656280000000038e+02,-1.196703104999999994e+02,-2.781099855532787046e+02
-1.525656280000000038e+02,-1.196703104999999994e+02,-2.768599856147540663e+02
-1.528390655000000038e+02,-1.193968729999999994e+02,-2.756099856762294849e+02
-1.525656280000000038e+02,-1.193968729999999994e+02,-2.762349856454918040e+02
-1.525656280000000038e+02,-1.191234354999999994e+02,-2.756099856762294849e+02
-1.522921905000000038e+02,-1.259593729999999994e+02,-2.818599853688524490e+02
-1.520187530000000038e+02,-1.259593729999999994e+02,-2.824849853381147682e+02
-1.520187530000000038e+02,-1.262328104999999994e+02,-2.818599853688524490e+02
-1.520187530000000038e+02,-1.262328104999999994e+02,-2.806099854303278676e+02
-1.522921905000000038e+02,-1.259593729999999994e+02,-2.806099854303278676e+02
-1.520187530000000038e+02,-1.259593729999999994e+02,-2.799849854610655484e+02
-1.522921905000000038e+02,-1.254124979999999994e+02,-2.831099853073770305e+02
-1.520187530000000038e+02,-1.254124979999999994e+02,-2.837349852766393496e+02
-1.520187530000000038e+02,-1.256859354999999994e+02,-2.831099853073770305e+02
-1.522921905000000038e+02,-1.254124979999999994e+02,-2.818599853688524490e+02
-1.520187530000000038e+02,-1.254124979999999994e+02,-2.799849854610655484e+02
-1.522921905000000038e+02,-1.248656229999999994e+02,-2.831099853073770305e+02
-1.520187530000000038e+02,-1.248656229999999994e+02,-2.837349852766393496e+02
-1.520187530000000038e+02,-1.251390604999999994e+02,-2.793599854918032861e+02
-1.522921905000000038e+02,-1.248656229999999994e+02,-2.793599854918032861e+02
-1.520187530000000038e+02,-1.248656229999999994e+02,-2.787349855225409669e+02
-1.522921905000000038e+02,-1.243187479999999994e+02,-2.856099851844262503e+02
-1.520187530000000038e+02,-1.243187479999999994e+02,-2.862349851536885126e+02
-1.520187530000000038e+02,-1.245921854999999994e+02,-2.856099851844262503e+02
-1.520187530000000038e+02,-1.245921854999999994e+02,-2.843599852459016120e+02
-1.522921905000000038e+02,-1.243187479999999994e+02,-2.843599852459016120e+02
-1.520187530000000038e+02,-1.245921854999999994e+02,-2.781099855532787046e+02
-1.522921905000000038e+02,-1.243187479999999994e+02,-2.781099855532787046e+02
-1.520187530000000038e+02,-1.243187479999999994e+02,-2.774849855840163855e+02
-1.522921905000000038e+02,-1.237718729999999994e+02,-2.856099851844262503e+02
-1.520187530000000038e+02,-1.237718729999999994e+02,-2.862349851536885126e+02
-1.522921905000000038e+02,-1.237718729999999994e+02,-2.843599852459016120e+02
-1.520187530000000038e+02,-1.237718729999999994e+02,-2.774849855840163855e+02
-1.522921905000000038e+02,-1.237718729999999994e+02,-2.756099856762294849e+02
-1.520187530000000038e+02,-1.237718729999999994e+02,-2.762349856454918040e+02
-1.520187530000000038e+02,-1.240453104999999994e+02,-2.756099856762294849e+02
-1.522921905000000038e+02,-1.232249979999999994e+02,-2.856099851844262503e+02
-1.520187530000000038e+02,-1.232249979999999994e+02,-2.862349851536885126e+02
-1.522921905000000038e+02,-1.232249979999999994e+02,-2.843599852459016120e+02
-1.520187530000000038e+02,-1.234984354999999994e+02,-2.768599856147540663e+02
-1.522921905000000038e+02,-1.232249979999999994e+02,-2.768599856147540663e+02
-1.522921905000000038e+02,-1.226781229999999994e+02,-2.856099851844262503e+02
-1.520187530000000038e+02,-1.226781229999999994e+02,-2.862349851536885126e+02
-1.522921905000000038e+02,-1.221312479999999994e+02,-2.868599851229508317e+02
-1.520187530000000038e+02,-1.221312479999999994e+02,-2.874849850922130940e+02
-1.520187530000000038e+02,-1.224046854999999994e+02,-2.868599851229508317e+02
-1.522921905000000038e+02,-1.221312479999999994e+02,-2.856099851844262503e+02
-1.522921905000000038e+02,-1.221312479999999994e+02,-2.843599852459016120e+02
-1.520187530000000038e+02,-1.218578104999999994e+02,-2.868599851229508317e+02
-1.522921905000000038e+02,-1.215843729999999994e+02,-2.856099851844262503e+02
-1.520187530000000038e+02,-1.215843729999999994e+02,-2.862349851536885126e+02
-1.522921905000000038e+02,-1.215843729999999994e+02,-2.843599852459016120e+02
-1.522921905000000038e+02,-1.210374979999999994e+02,-2.856099851844262503e+02
-1.520187530000000038e+02,-1.210374979999999994e+02,-2.862349851536885126e+02
-1.522921905000000038e+02,-1.210374979999999994e+02,-2.843599852459016120e+02
-1.522921905000000038e+02,-1.204906229999999994e+02,-2.856099851844262503e+02
-1.520187530000000038e+02,-1.204906229999999994e+02,-2.862349851536885126e+02
-1.522921905000000038e+02,-1.204906229999999994e+02,-2.843599852459016120e+02
-1.522921905000000038e+02,-1.199437479999999994e+02,-2.856099851844262503e+02
-1.520187530000000038e+02,-1.199437479999999994e+02,-2.862349851536885126e+02
-1.522921905000000038e+02,-1.199437479999999994e+02,-2.843599852459016120e+02
-1.520187530000000038e+02,-1.202171854999999994e+02,-2.818599853688524490e+02
-1.520187530000000038e+02,-1.199437479999999994e+02,-2.824849853381147682e+02
-1.520187530000000038e+02,-1.199437479999999994e+02,-2.812349853995901867e+02
-1.520187530000000038e+02,-1.196703104999999994e+02,-2.856099851844262503e+02
-1.520187530000000038e+02,-1.196703104999999994e+02,-2.843599852459016120e+02
-1.520187530000000038e+02,-1.196703104999999994e+02,-2.831099853073770305e+02
-1.520187530000000038e+02,-1.196703104999999994e+02,-2.806099854303278676e+02
-1.520187530000000038e+02,-1.196703104999999994e+02,-2.793599854918032861e+02
-1.520187530000000038e+02,-1.196703104999999994e+02,-2.781099855532787046e+02
-1.520187530000000038e+02,-1.196703104999999994e+02,-2.768599856147540663e+02
-1.522921905000000038e+02,-1.193968729999999994e+02,-2.756099856762294849e+02
-1.520187530000000038e+02,-1.196703104999999994e+02,-2.756099856762294849e+02
-1.517453155000000038e+02,-1.265062479999999994e+02,-2.818599853688524490e+02
-1.514718780000000038e+02,-1.265062479999999994e+02,-2.824849853381147682e+02
-1.514718780000000038e+02,-1.267796854999999994e+02,-2.818599853688524490e+02
-1.514718780000000038e+02,-1.267796854999999994e+02,-2.806099854303278676e+02
-1.517453155000000038e+02,-1.265062479999999994e+02,-2.806099854303278676e+02
-1.514718780000000038e+02,-1.265062479999999994e+02,-2.799849854610655484e+02
-1.517453155000000038e+02,-1.259593729999999994e+02,-2.831099853073770305e+02
-1.514718780000000038e+02,-1.259593729999999994e+02,-2.837349852766393496e+02
-1.514718780000000038e+02,-1.262328104999999994e+02,-2.831099853073770305e+02
-1.514718780000000038e+02,-1.259593729999999994e+02,-2.799849854610655484e+02
-1.517453155000000038e+02,-1.254124979999999994e+02,-2.843599852459016120e+02
-1.514718780000000038e+02,-1.254124979999999994e+02,-2.849849852151639311e+02
-1.514718780000000038e+02,-1.256859354999999994e+02,-2.843599852459016120e+02
-1.514718780000000038e+02,-1.256859354999999994e+02,-2.793599854918032861e+02
-1.517453155000000038e+02,-1.254124979999999994e+02,-2.793599854918032861e+02
-1.514718780000000038e+02,-1.254124979999999994e+02,-2.787349855225409669e+02
-1.517453155000000038e+02,-1.248656229999999994e+02,-2.856099851844262503e+02
-1.514718780000000038e+02,-1.248656229999999994e+02,-2.862349851536885126e+02
-1.514718780000000038e+02,-1.251390604999999994e+02,-2.856099851844262503e+02
-1.517453155000000038e+02,-1.248656229999999994e+02,-2.843599852459016120e+02
-1.514718780000000038e+02,-1.251390604999999994e+02,-2.781099855532787046e+02
-1.517453155000000038e+02,-1.248656229999999994e+02,-2.781099855532787046e+02
-1.514718780000000038e+02,-1.248656229999999994e+02,-2.774849855840163855e+02
-1.517453155000000038e+02,-1.243187479999999994e+02,-2.868599851229508317e+02
-1.514718780000000038e+02,-1.243187479999999994e+02,-2.874849850922130940e+02
-1.514718780000000038e+02,-1.245921854999999994e+02,-2.868599851229508317e+02
-1.514718780000000038e+02,-1.243187479999999994e+02,-2.774849855840163855e+02
-1.517453155000000038e+02,-1.243187479999999994e+02,-2.756099856762294849e+02
-1.514718780000000038e+02,-1.243187479999999994e+02,-2.762349856454918040e+02
-1.514718780000000038e+02,-1.245921854999999994e+02,-2.756099856762294849e+02
-1.517453155000000038e+02,-1.237718729999999994e+02,-2.868599851229508317e+02
-1.514718780000000038e+02,-1.237718729999999994e+02,-2.874849850922130940e+02
-1.514718780000000038e+02,-1.240453104999999994e+02,-2.768599856147540663e+02
-1.517453155000000038e+02,-1.237718729999999994e+02,-2.768599856147540663e+02
-1.517453155000000038e+02,-1.232249979999999994e+02,-2.868599851229508317e+02
-1.514718780000000038e+02,-1.232249979999999994e+02,-2.874849850922130940e+02
-1.517453155000000038e+02,-1.226781229999999994e+02,-2.868599851229508317e+02
-1.514718780000000038e+02,-1.226781229999999994e+02,-2.874849850922130940e+02
-1.514718780000000038e+02,-1.221312479999999994e+02,-2.874849850922130940e+02
-1.514718780000000038e+02,-1.218578104999999994e+02,-2.868599851229508317e+02
-1.514718780000000038e+02,-1.215843729999999994e+02,-2.862349851536885126e+02
-1.514718780000000038e+02,-1.210374979999999994e+02,-2.862349851536885126e+02
-1.514718780000000038e+02,-1.204906229999999994e+02,-2.862349851536885126e+02
-1.514718780000000038e+02,-1.199437479999999994e+02,-2.862349851536885126e+02
-1.514718780000000038e+02,-1.202171854999999994e+02,-2.818599853688524490e+02
-1.514718780000000038e+02,-1.199437479999999994e+02,-2.824849853381147682e+02
-1.514718780000000038e+02,-1.199437479999999994e+02,-2.812349853995901867e+02
-1.517453155000000038e+02,-1.199437479999999994e+02,-2.768599856147540663e+02
-1.514718780000000038e+02,-1.202171854999999994e+02,-2.768599856147540663e+02
-1.514718780000000038e+02,-1.199437479999999994e+02,-2.774849855840163855e+02
-1.517453155000000038e+02,-1.199437479999999994e+02,-2.756099856762294849e+02
-1.514718780000000038e+02,-1.202171854999999994e+02,-2.756099856762294849e+02
-1.514718780000000038e+02,-1.196703104999999994e+02,-2.856099851844262503e+02
-1.514718780000000038e+02,-1.196703104999999994e+02,-2.843599852459016120e+02
-1.514718780000000038e+02,-1.196703104999999994e+02,-2.831099853073770305e+02
-1.514718780000000038e+02,-1.196703104999999994e+02,-2.806099854303278676e+02
-1.514718780000000038e+02,-1.196703104999999994e+02,-2.793599854918032861e+02
-1.514718780000000038e+02,-1.196703104999999994e+02,-2.781099855532787046e+02
-1.511984405000000038e+02,-1.265062479999999994e+02,-2.831099853073770305e+02
-1.509250030000000038e+02,-1.265062479999999994e+02,-2.837349852766393496e+02
-1.509250030000000038e+02,-1.267796854999999994e+02,-2.831099853073770305e+02
-1.509250030000000038e+02,-1.267796854999999994e+02,-2.818599853688524490e+02
-1.509250030000000038e+02,-1.267796854999999994e+02,-2.806099854303278676e+02
-1.509250030000000038e+02,-1.265062479999999994e+02,-2.799849854610655484e+02
-1.511984405000000038e+02,-1.259593729999999994e+02,-2.843599852459016120e+02
-1.509250030000000038e+02,-1.259593729999999994e+02,-2.849849852151639311e+02
-1.509250030000000038e+02,-1.262328104999999994e+02,-2.843599852459016120e+02
-1.509250030000000038e+02,-1.262328104999999994e+02,-2.793599854918032861e+02
-1.511984405000000038e+02,-1.259593729999999994e+02,-2.793599854918032861e+02
-1.509250030000000038e+02,-1.259593729999999994e+02,-2.787349855225409669e+02
-1.511984405000000038e+02,-1.254124979999999994e+02,-2.856099851844262503e+02
-1.509250030000000038e+02,-1.254124979999999994e+02,-2.862349851536885126e+02
-1.509250030000000038e+02,-1.256859354999999994e+02,-2.856099851844262503e+02
-1.509250030000000038e+02,-1.256859354999999994e+02,-2.781099855532787046e+02
-1.511984405000000038e+02,-1.254124979999999994e+02,-2.781099855532787046e+02
-1.509250030000000038e+02,-1.254124979999999994e+02,-2.774849855840163855e+02
-1.511984405000000038e+02,-1.248656229999999994e+02,-2.868599851229508317e+02
-1.509250030000000038e+02,-1.248656229999999994e+02,-2.874849850922130940e+02
-1.509250030000000038e+02,-1.251390604999999994e+02,-2.868599851229508317e+02
-1.509250030000000038e+02,-1.248656229999999994e+02,-2.774849855840163855e+02
-1.511984405000000038e+02,-1.248656229999999994e+02,-2.756099856762294849e+02
-1.509250030000000038e+02,-1.248656229999999994e+02,-2.762349856454918040e+02
-1.509250030000000038e+02,-1.251390604999999994e+02,-2.756099856762294849e+02
-1.509250030000000038e+02,-1.243187479999999994e+02,-2.874849850922130940e+02
-1.509250030000000038e+02,-1.245921854999999994e+02,-2.768599856147540663e+02
-1.511984405000000038e+02,-1.243187479999999994e+02,-2.768599856147540663e+02
-1.511984405000000038e+02,-1.237718729999999994e+02,-2.881099850614754132e+02
-1.509250030000000038e+02,-1.237718729999999994e+02,-2.887349850307376755e+02
-1.509250030000000038e+02,-1.240453104999999994e+02,-2.881099850614754132e+02
-1.509250030000000038e+02,-1.234984354999999994e+02,-2.881099850614754132e+02
-1.509250030000000038e+02,-1.232249979999999994e+02,-2.874849850922130940e+02
-1.509250030000000038e+02,-1.226781229999999994e+02,-2.874849850922130940e+02
-1.509250030000000038e+02,-1.221312479999999994e+02,-2.874849850922130940e+02
-1.509250030000000038e+02,-1.218578104999999994e+02,-2.868599851229508317e+02
-1.509250030000000038e+02,-1.215843729999999994e+02,-2.862349851536885126e+02
-1.509250030000000038e+02,-1.210374979999999994e+02,-2.862349851536885126e+02
-1.509250030000000038e+02,-1.204906229999999994e+02,-2.862349851536885126e+02
-1.511984405000000038e+02,-1.204906229999999994e+02,-2.768599856147540663e+02
-1.509250030000000038e+02,-1.207640604999999994e+02,-2.768599856147540663e+02
-1.509250030000000038e+02,-1.204906229999999994e+02,-2.774849855840163855e+02
-1.509250030000000038e+02,-1.204906229999999994e+02,-2.762349856454918040e+02
-1.509250030000000038e+02,-1.199437479999999994e+02,-2.862349851536885126e+02
-1.509250030000000038e+02,-1.202171854999999994e+02,-2.818599853688524490e+02
-1.509250030000000038e+02,-1.199437479999999994e+02,-2.824849853381147682e+02
-1.511984405000000038e+02,-1.199437479999999994e+02,-2.806099854303278676e+02
-1.509250030000000038e+02,-1.202171854999999994e+02,-2.806099854303278676e+02
-1.509250030000000038e+02,-1.199437479999999994e+02,-2.799849854610655484e+02
-1.509250030000000038e+02,-1.199437479999999994e+02,-2.774849855840163855e+02
-1.509250030000000038e+02,-1.202171854999999994e+02,-2.756099856762294849e+02
-1.509250030000000038e+02,-1.196703104999999994e+02,-2.856099851844262503e+02
-1.509250030000000038e+02,-1.196703104999999994e+02,-2.843599852459016120e+02
-1.509250030000000038e+02,-1.196703104999999994e+02,-2.831099853073770305e+02
-1.509250030000000038e+02,-1.196703104999999994e+02,-2.793599854918032861e+02
-1.509250030000000038e+02,-1.196703104999999994e+02,-2.781099855532787046e+02
-1.506515655000000038e+02,-1.265062479999999994e+02,-2.843599852459016120e+02
-1.503781280000000038e+02,-1.265062479999999994e+02,-2.849849852151639311e+02
-1.503781280000000038e+02,-1.267796854999999994e+02,-2.843599852459016120e+02
-1.503781280000000038e+02,-1.267796854999999994e+02,-2.831099853073770305e+02
-1.503781280000000038e+02,-1.267796854999999994e+02,-2.818599853688524490e+02
-1.503781280000000038e+02,-1.267796854999999994e+02,-2.806099854303278676e+02
-1.503781280000000038e+02,-1.267796854999999994e+02,-2.793599854918032861e+02
-1.506515655000000038e+02,-1.265062479999999994e+02,-2.793599854918032861e+02
-1.503781280000000038e+02,-1.265062479999999994e+02,-2.787349855225409669e+02
-1.506515655000000038e+02,-1.259593729999999994e+02,-2.856099851844262503e+02
-1.503781280000000038e+02,-1.259593729999999994e+02,-2.862349851536885126e+02
-1.503781280000000038e+02,-1.262328104999999994e+02,-2.856099851844262503e+02
-1.503781280000000038e+02,-1.259593729999999994e+02,-2.787349855225409669e+02
-1.506515655000000038e+02,-1.254124979999999994e+02,-2.868599851229508317e+02
-1.503781280000000038e+02,-1.254124979999999994e+02,-2.874849850922130940e+02
-1.503781280000000038e+02,-1.256859354999999994e+02,-2.868599851229508317e+02
-1.503781280000000038e+02,-1.256859354999999994e+02,-2.781099855532787046e+02
-1.503781280000000038e+02,-1.254124979999999994e+02,-2.774849855840163855e+02
-1.503781280000000038e+02,-1.248656229999999994e+02,-2.874849850922130940e+02
-1.503781280000000038e+02,-1.251390604999999994e+02,-2.768599856147540663e+02
-1.506515655000000038e+02,-1.248656229999999994e+02,-2.768599856147540663e+02
-1.503781280000000038e+02,-1.251390604999999994e+02,-2.756099856762294849e+02
-1.506515655000000038e+02,-1.243187479999999994e+02,-2.881099850614754132e+02
-1.503781280000000038e+02,-1.243187479999999994e+02,-2.887349850307376755e+02
-1.503781280000000038e+02,-1.245921854999999994e+02,-2.881099850614754132e+02
-1.503781280000000038e+02,-1.237718729999999994e+02,-2.887349850307376755e+02
-1.506515655000000038e+02,-1.232249979999999994e+02,-2.881099850614754132e+02
-1.503781280000000038e+02,-1.232249979999999994e+02,-2.887349850307376755e+02
-1.506515655000000038e+02,-1.226781229999999994e+02,-2.881099850614754132e+02
-1.503781280000000038e+02,-1.226781229999999994e+02,-2.887349850307376755e+02
-1.503781280000000038e+02,-1.224046854999999994e+02,-2.881099850614754132e+02
-1.503781280000000038e+02,-1.221312479999999994e+02,-2.874849850922130940e+02
-1.506515655000000038e+02,-1.215843729999999994e+02,-2.868599851229508317e+02
-1.503781280000000038e+02,-1.215843729999999994e+02,-2.874849850922130940e+02
-1.503781280000000038e+02,-1.213109354999999994e+02,-2.868599851229508317e+02
-1.503781280000000038e+02,-1.210374979999999994e+02,-2.862349851536885126e+02
-1.503781280000000038e+02,-1.204906229999999994e+02,-2.862349851536885126e+02
-1.503781280000000038e+02,-1.207640604999999994e+02,-2.768599856147540663e+02
-1.503781280000000038e+02,-1.204906229999999994e+02,-2.774849855840163855e+02
-1.503781280000000038e+02,-1.204906229999999994e+02,-2.762349856454918040e+02
-1.503781280000000038e+02,-1.202171854999999994e+02,-2.856099851844262503e+02
-1.506515655000000038e+02,-1.199437479999999994e+02,-2.856099851844262503e+02
-1.503781280000000038e+02,-1.199437479999999994e+02,-2.849849852151639311e+02
-1.503781280000000038e+02,-1.202171854999999994e+02,-2.818599853688524490e+02
-1.503781280000000038e+02,-1.199437479999999994e+02,-2.824849853381147682e+02
-1.503781280000000038e+02,-1.202171854999999994e+02,-2.806099854303278676e+02
-1.503781280000000038e+02,-1.199437479999999994e+02,-2.799849854610655484e+02
-1.503781280000000038e+02,-1.199437479999999994e+02,-2.774849855840163855e+02
-1.503781280000000038e+02,-1.202171854999999994e+02,-2.756099856762294849e+02
-1.503781280000000038e+02,-1.196703104999999994e+02,-2.843599852459016120e+02
-1.503781280000000038e+02,-1.196703104999999994e+02,-2.831099853073770305e+02
-1.503781280000000038e+02,-1.196703104999999994e+02,-2.793599854918032861e+02
-1.503781280000000038e+02,-1.196703104999999994e+02,-2.781099855532787046e+02
-1.501046905000000038e+02,-1.270531229999999994e+02,-2.818599853688524490e+02
-1.498312530000000038e+02,-1.270531229999999994e+02,-2.824849853381147682e+02
-1.498312530000000038e+02,-1.273265604999999994e+02,-2.818599853688524490e+02
-1.498312530000000038e+02,-1.273265604999999994e+02,-2.806099854303278676e+02
-1.501046905000000038e+02,-1.270531229999999994e+02,-2.806099854303278676e+02
-1.498312530000000038e+02,-1.270531229999999994e+02,-2.799849854610655484e+02
-1.498312530000000038e+02,-1.265062479999999994e+02,-2.849849852151639311e+02
-1.498312530000000038e+02,-1.267796854999999994e+02,-2.843599852459016120e+02
-1.498312530000000038e+02,-1.267796854999999994e+02,-2.831099853073770305e+02
-1.498312530000000038e+02,-1.267796854999999994e+02,-2.793599854918032861e+02
-1.498312530000000038e+02,-1.265062479999999994e+02,-2.787349855225409669e+02
-1.498312530000000038e+02,-1.259593729999999994e+02,-2.862349851536885126e+02
-1.498312530000000038e+02,-1.262328104999999994e+02,-2.856099851844262503e+02
-1.498312530000000038e+02,-1.259593729999999994e+02,-2.787349855225409669e+02
-1.498312530000000038e+02,-1.254124979999999994e+02,-2.874849850922130940e+02
-1.498312530000000038e+02,-1.256859354999999994e+02,-2.868599851229508317e+02
-1.498312530000000038e+02,-1.256859354999999994e+02,-2.781099855532787046e+02
-1.498312530000000038e+02,-1.254124979999999994e+02,-2.774849855840163855e+02
-1.501046905000000038e+02,-1.248656229999999994e+02,-2.881099850614754132e+02
-1.498312530000000038e+02,-1.248656229999999994e+02,-2.887349850307376755e+02
-1.498312530000000038e+02,-1.251390604999999994e+02,-2.881099850614754132e+02
-1.498312530000000038e+02,-1.251390604999999994e+02,-2.768599856147540663e+02
-1.498312530000000038e+02,-1.251390604999999994e+02,-2.756099856762294849e+02
-1.498312530000000038e+02,-1.243187479999999994e+02,-2.887349850307376755e+02
-1.498312530000000038e+02,-1.237718729999999994e+02,-2.887349850307376755e+02
-1.498312530000000038e+02,-1.232249979999999994e+02,-2.887349850307376755e+02
-1.498312530000000038e+02,-1.226781229999999994e+02,-2.887349850307376755e+02
-1.498312530000000038e+02,-1.224046854999999994e+02,-2.881099850614754132e+02
-1.498312530000000038e+02,-1.221312479999999994e+02,-2.874849850922130940e+02
-1.498312530000000038e+02,-1.215843729999999994e+02,-2.874849850922130940e+02
-1.501046905000000038e+02,-1.210374979999999994e+02,-2.868599851229508317e+02
-1.498312530000000038e+02,-1.210374979999999994e+02,-2.874849850922130940e+02
-1.501046905000000038e+02,-1.204906229999999994e+02,-2.868599851229508317e+02
-1.498312530000000038e+02,-1.204906229999999994e+02,-2.874849850922130940e+02
-1.498312530000000038e+02,-1.207640604999999994e+02,-2.768599856147540663e+02
-1.498312530000000038e+02,-1.204906229999999994e+02,-2.774849855840163855e+02
-1.498312530000000038e+02,-1.204906229999999994e+02,-2.762349856454918040e+02
-1.498312530000000038e+02,-1.202171854999999994e+02,-2.868599851229508317e+02
-1.498312530000000038e+02,-1.202171854999999994e+02,-2.856099851844262503e+02
-1.498312530000000038e+02,-1.199437479999999994e+02,-2.849849852151639311e+02
-1.498312530000000038e+02,-1.202171854999999994e+02,-2.818599853688524490e+02
-1.498312530000000038e+02,-1.199437479999999994e+02,-2.824849853381147682e+02
-1.498312530000000038e+02,-1.202171854999999994e+02,-2.806099854303278676e+02
-1.498312530000000038e+02,-1.199437479999999994e+02,-2.799849854610655484e+02
-1.501046905000000038e+02,-1.199437479999999994e+02,-2.781099855532787046e+02
-1.498312530000000038e+02,-1.202171854999999994e+02,-2.781099855532787046e+02
-1.498312530000000038e+02,-1.199437479999999994e+02,-2.787349855225409669e+02
-1.498312530000000038e+02,-1.202171854999999994e+02,-2.756099856762294849e+02
-1.498312530000000038e+02,-1.196703104999999994e+02,-2.843599852459016120e+02
-1.498312530000000038e+02,-1.196703104999999994e+02,-2.831099853073770305e+02
-1.498312530000000038e+02,-1.196703104999999994e+02,-2.793599854918032861e+02
-1.495578155000000038e+02,-1.270531229999999994e+02,-2.831099853073770305e+02
-1.492843780000000038e+02,-1.270531229999999994e+02,-2.837349852766393496e+02
-1.492843780000000038e+02,-1.273265604999999994e+02,-2.831099853073770305e+02
-1.492843780000000038e+02,-1.273265604999999994e+02,-2.818599853688524490e+02
-1.492843780000000038e+02,-1.273265604999999994e+02,-2.806099854303278676e+02
-1.492843780000000038e+02,-1.270531229999999994e+02,-2.799849854610655484e+02
-1.495578155000000038e+02,-1.265062479999999994e+02,-2.856099851844262503e+02
-1.492843780000000038e+02,-1.265062479999999994e+02,-2.862349851536885126e+02
-1.492843780000000038e+02,-1.267796854999999994e+02,-2.856099851844262503e+02
-1.492843780000000038e+02,-1.267796854999999994e+02,-2.843599852459016120e+02
-1.492843780000000038e+02,-1.267796854999999994e+02,-2.793599854918032861e+02
-1.492843780000000038e+02,-1.265062479999999994e+02,-2.787349855225409669e+02
-1.495578155000000038e+02,-1.259593729999999994e+02,-2.868599851229508317e+02
-1.492843780000000038e+02,-1.259593729999999994e+02,-2.874849850922130940e+02
-1.492843780000000038e+02,-1.262328104999999994e+02,-2.868599851229508317e+02
-1.492843780000000038e+02,-1.262328104999999994e+02,-2.781099855532787046e+02
-1.495578155000000038e+02,-1.259593729999999994e+02,-2.781099855532787046e+02
-1.492843780000000038e+02,-1.259593729999999994e+02,-2.774849855840163855e+02
-1.492843780000000038e+02,-1.254124979999999994e+02,-2.874849850922130940e+02
-1.492843780000000038e+02,-1.254124979999999994e+02,-2.774849855840163855e+02
-1.495578155000000038e+02,-1.254124979999999994e+02,-2.756099856762294849e+02
-1.492843780000000038e+02,-1.254124979999999994e+02,-2.762349856454918040e+02
-1.492843780000000038e+02,-1.256859354999999994e+02,-2.756099856762294849e+02
-1.492843780000000038e+02,-1.248656229999999994e+02,-2.887349850307376755e+02
-1.492843780000000038e+02,-1.251390604999999994e+02,-2.881099850614754132e+02
-1.492843780000000038e+02,-1.251390604999999994e+02,-2.768599856147540663e+02
-1.495578155000000038e+02,-1.243187479999999994e+02,-2.893599849999999947e+02
-1.492843780000000038e+02,-1.245921854999999994e+02,-2.893599849999999947e+02
-1.495578155000000038e+02,-1.237718729999999994e+02,-2.893599849999999947e+02
-1.495578155000000038e+02,-1.232249979999999994e+02,-2.893599849999999947e+02
-1.495578155000000038e+02,-1.226781229999999994e+02,-2.893599849999999947e+02
-1.495578155000000038e+02,-1.221312479999999994e+02,-2.881099850614754132e+02
-1.492843780000000038e+02,-1.221312479999999994e+02,-2.887349850307376755e+02
-1.492843780000000038e+02,-1.224046854999999994e+02,-2.893599849999999947e+02
-1.492843780000000038e+02,-1.218578104999999994e+02,-2.881099850614754132e+02
-1.492843780000000038e+02,-1.215843729999999994e+02,-2.874849850922130940e+02
-1.492843780000000038e+02,-1.210374979999999994e+02,-2.874849850922130940e+02
-1.492843780000000038e+02,-1.204906229999999994e+02,-2.874849850922130940e+02
-1.495578155000000038e+02,-1.204906229999999994e+02,-2.856099851844262503e+02
-1.492843780000000038e+02,-1.207640604999999994e+02,-2.856099851844262503e+02
-1.492843780000000038e+02,-1.204906229999999994e+02,-2.862349851536885126e+02
-1.492843780000000038e+02,-1.204906229999999994e+02,-2.849849852151639311e+02
-1.492843780000000038e+02,-1.207640604999999994e+02,-2.768599856147540663e+02
-1.492843780000000038e+02,-1.204906229999999994e+02,-2.774849855840163855e+02
-1.492843780000000038e+02,-1.204906229999999994e+02,-2.762349856454918040e+02
-1.492843780000000038e+02,-1.202171854999999994e+02,-2.868599851229508317e+02
-1.492843780000000038e+02,-1.199437479999999994e+02,-2.849849852151639311e+02
-1.495578155000000038e+02,-1.199437479999999994e+02,-2.831099853073770305e+02
-1.492843780000000038e+02,-1.202171854999999994e+02,-2.831099853073770305e+02
-1.492843780000000038e+02,-1.199437479999999994e+02,-2.837349852766393496e+02
-1.492843780000000038e+02,-1.202171854999999994e+02,-2.818599853688524490e+02
-1.492843780000000038e+02,-1.202171854999999994e+02,-2.806099854303278676e+02
-1.492843780000000038e+02,-1.199437479999999994e+02,-2.799849854610655484e+02
-1.492843780000000038e+02,-1.202171854999999994e+02,-2.781099855532787046e+02
-1.492843780000000038e+02,-1.199437479999999994e+02,-2.787349855225409669e+02
-1.492843780000000038e+02,-1.202171854999999994e+02,-2.756099856762294849e+02
-1.492843780000000038e+02,-1.196703104999999994e+02,-2.843599852459016120e+02
-1.492843780000000038e+02,-1.196703104999999994e+02,-2.793599854918032861e+02
-1.487375030000000038e+02,-1.270531229999999994e+02,-2.837349852766393496e+02
-1.487375030000000038e+02,-1.273265604999999994e+02,-2.831099853073770305e+02
-1.487375030000000038e+02,-1.273265604999999994e+02,-2.818599853688524490e+02
-1.487375030000000038e+02,-1.273265604999999994e+02,-2.806099854303278676e+02
-1.487375030000000038e+02,-1.270531229999999994e+02,-2.799849854610655484e+02
-1.487375030000000038e+02,-1.265062479999999994e+02,-2.862349851536885126e+02
-1.487375030000000038e+02,-1.267796854999999994e+02,-2.856099851844262503e+02
-1.487375030000000038e+02,-1.267796854999999994e+02,-2.843599852459016120e+02
-1.487375030000000038e+02,-1.267796854999999994e+02,-2.793599854918032861e+02
-1.487375030000000038e+02,-1.265062479999999994e+02,-2.787349855225409669e+02
-1.487375030000000038e+02,-1.259593729999999994e+02,-2.874849850922130940e+02
-1.487375030000000038e+02,-1.262328104999999994e+02,-2.868599851229508317e+02
-1.487375030000000038e+02,-1.262328104999999994e+02,-2.781099855532787046e+02
-1.487375030000000038e+02,-1.259593729999999994e+02,-2.774849855840163855e+02
-1.487375030000000038e+02,-1.254124979999999994e+02,-2.874849850922130940e+02
-1.487375030000000038e+02,-1.254124979999999994e+02,-2.774849855840163855e+02
-1.490109405000000038e+02,-1.254124979999999994e+02,-2.756099856762294849e+02
-1.490109405000000038e+02,-1.248656229999999994e+02,-2.893599849999999947e+02
-1.487375030000000038e+02,-1.251390604999999994e+02,-2.893599849999999947e+02
-1.487375030000000038e+02,-1.251390604999999994e+02,-2.881099850614754132e+02
-1.487375030000000038e+02,-1.251390604999999994e+02,-2.768599856147540663e+02
-1.487375030000000038e+02,-1.251390604999999994e+02,-2.756099856762294849e+02
-1.490109405000000038e+02,-1.221312479999999994e+02,-2.893599849999999947e+02
-1.487375030000000038e+02,-1.224046854999999994e+02,-2.881099850614754132e+02
-1.487375030000000038e+02,-1.221312479999999994e+02,-2.887349850307376755e+02
-1.490109405000000038e+02,-1.221312479999999994e+02,-2.881099850614754132e+02
-1.487375030000000038e+02,-1.221312479999999994e+02,-2.874849850922130940e+02
-1.487375030000000038e+02,-1.218578104999999994e+02,-2.893599849999999947e+02
-1.487375030000000038e+02,-1.215843729999999994e+02,-2.874849850922130940e+02
-1.487375030000000038e+02,-1.210374979999999994e+02,-2.874849850922130940e+02
-1.487375030000000038e+02,-1.204906229999999994e+02,-2.874849850922130940e+02
-1.487375030000000038e+02,-1.207640604999999994e+02,-2.856099851844262503e+02
-1.487375030000000038e+02,-1.204906229999999994e+02,-2.862349851536885126e+02
-1.487375030000000038e+02,-1.204906229999999994e+02,-2.849849852151639311e+02
-1.490109405000000038e+02,-1.204906229999999994e+02,-2.781099855532787046e+02
-1.487375030000000038e+02,-1.207640604999999994e+02,-2.781099855532787046e+02
-1.487375030000000038e+02,-1.204906229999999994e+02,-2.787349855225409669e+02
-1.487375030000000038e+02,-1.207640604999999994e+02,-2.768599856147540663e+02
-1.487375030000000038e+02,-1.204906229999999994e+02,-2.762349856454918040e+02
-1.487375030000000038e+02,-1.202171854999999994e+02,-2.868599851229508317e+02
-1.487375030000000038e+02,-1.202171854999999994e+02,-2.843599852459016120e+02
-1.490109405000000038e+02,-1.199437479999999994e+02,-2.843599852459016120e+02
-1.487375030000000038e+02,-1.202171854999999994e+02,-2.831099853073770305e+02
-1.487375030000000038e+02,-1.202171854999999994e+02,-2.818599853688524490e+02
-1.487375030000000038e+02,-1.202171854999999994e+02,-2.806099854303278676e+02
-1.490109405000000038e+02,-1.199437479999999994e+02,-2.793599854918032861e+02
-1.487375030000000038e+02,-1.202171854999999994e+02,-2.793599854918032861e+02
-1.487375030000000038e+02,-1.202171854999999994e+02,-2.756099856762294849e+02
-1.484640655000000038e+02,-1.270531229999999994e+02,-2.831099853073770305e+02
-1.481906280000000038e+02,-1.270531229999999994e+02,-2.824849853381147682e+02
-1.481906280000000038e+02,-1.273265604999999994e+02,-2.818599853688524490e+02
-1.481906280000000038e+02,-1.273265604999999994e+02,-2.806099854303278676e+02
-1.481906280000000038e+02,-1.270531229999999994e+02,-2.799849854610655484e+02
-1.481906280000000038e+02,-1.265062479999999994e+02,-2.862349851536885126e+02
-1.481906280000000038e+02,-1.267796854999999994e+02,-2.856099851844262503e+02
-1.481906280000000038e+02,-1.267796854999999994e+02,-2.843599852459016120e+02
-1.481906280000000038e+02,-1.267796854999999994e+02,-2.831099853073770305e+02
-1.481906280000000038e+02,-1.267796854999999994e+02,-2.793599854918032861e+02
-1.481906280000000038e+02,-1.265062479999999994e+02,-2.787349855225409669e+02
-1.484640655000000038e+02,-1.259593729999999994e+02,-2.868599851229508317e+02
-1.481906280000000038e+02,-1.259593729999999994e+02,-2.862349851536885126e+02
-1.481906280000000038e+02,-1.262328104999999994e+02,-2.781099855532787046e+02
-1.481906280000000038e+02,-1.259593729999999994e+02,-2.774849855840163855e+02
-1.481906280000000038e+02,-1.254124979999999994e+02,-2.874849850922130940e+02
-1.481906280000000038e+02,-1.256859354999999994e+02,-2.868599851229508317e+02
-1.481906280000000038e+02,-1.254124979999999994e+02,-2.774849855840163855e+02
-1.481906280000000038e+02,-1.248656229999999994e+02,-2.887349850307376755e+02
-1.484640655000000038e+02,-1.248656229999999994e+02,-2.893599849999999947e+02
-1.481906280000000038e+02,-1.251390604999999994e+02,-2.881099850614754132e+02
-1.484640655000000038e+02,-1.248656229999999994e+02,-2.768599856147540663e+02
-1.481906280000000038e+02,-1.248656229999999994e+02,-2.774849855840163855e+02
-1.481906280000000038e+02,-1.248656229999999994e+02,-2.762349856454918040e+02
-1.481906280000000038e+02,-1.251390604999999994e+02,-2.756099856762294849e+02
-1.481906280000000038e+02,-1.245921854999999994e+02,-2.893599849999999947e+02
-1.481906280000000038e+02,-1.245921854999999994e+02,-2.768599856147540663e+02
-1.481906280000000038e+02,-1.224046854999999994e+02,-2.881099850614754132e+02
-1.481906280000000038e+02,-1.221312479999999994e+02,-2.887349850307376755e+02
-1.481906280000000038e+02,-1.221312479999999994e+02,-2.874849850922130940e+02
-1.481906280000000038e+02,-1.218578104999999994e+02,-2.893599849999999947e+02
-1.481906280000000038e+02,-1.215843729999999994e+02,-2.874849850922130940e+02
-1.481906280000000038e+02,-1.210374979999999994e+02,-2.874849850922130940e+02
-1.484640655000000038e+02,-1.210374979999999994e+02,-2.768599856147540663e+02
-1.481906280000000038e+02,-1.213109354999999994e+02,-2.768599856147540663e+02
-1.481906280000000038e+02,-1.210374979999999994e+02,-2.774849855840163855e+02
-1.481906280000000038e+02,-1.210374979999999994e+02,-2.762349856454918040e+02
-1.481906280000000038e+02,-1.207640604999999994e+02,-2.868599851229508317e+02
-1.484640655000000038e+02,-1.204906229999999994e+02,-2.868599851229508317e+02
-1.481906280000000038e+02,-1.207640604999999994e+02,-2.856099851844262503e+02
-1.481906280000000038e+02,-1.204906229999999994e+02,-2.849849852151639311e+02
-1.484640655000000038e+02,-1.204906229999999994e+02,-2.818599853688524490e+02
-1.481906280000000038e+02,-1.207640604999999994e+02,-2.818599853688524490e+02
-1.481906280000000038e+02,-1.204906229999999994e+02,-2.824849853381147682e+02
-1.484640655000000038e+02,-1.204906229999999994e+02,-2.806099854303278676e+02
-1.481906280000000038e+02,-1.207640604999999994e+02,-2.806099854303278676e+02
-1.481906280000000038e+02,-1.204906229999999994e+02,-2.799849854610655484e+02
-1.481906280000000038e+02,-1.207640604999999994e+02,-2.781099855532787046e+02
-1.481906280000000038e+02,-1.204906229999999994e+02,-2.787349855225409669e+02
-1.481906280000000038e+02,-1.204906229999999994e+02,-2.762349856454918040e+02
-1.481906280000000038e+02,-1.202171854999999994e+02,-2.843599852459016120e+02
-1.481906280000000038e+02,-1.202171854999999994e+02,-2.831099853073770305e+02
-1.481906280000000038e+02,-1.202171854999999994e+02,-2.793599854918032861e+02
-1.481906280000000038e+02,-1.202171854999999994e+02,-2.756099856762294849e+02
-1.476437530000000038e+02,-1.270531229999999994e+02,-2.824849853381147682e+02
-1.476437530000000038e+02,-1.273265604999999994e+02,-2.818599853688524490e+02
-1.476437530000000038e+02,-1.273265604999999994e+02,-2.806099854303278676e+02
-1.476437530000000038e+02,-1.270531229999999994e+02,-2.799849854610655484e+02
-1.479171905000000038e+02,-1.265062479999999994e+02,-2.856099851844262503e+02
-1.476437530000000038e+02,-1.265062479999999994e+02,-2.849849852151639311e+02
-1.476437530000000038e+02,-1.267796854999999994e+02,-2.843599852459016120e+02
-1.476437530000000038e+02,-1.267796854999999994e+02,-2.831099853073770305e+02
-1.479171905000000038e+02,-1.265062479999999994e+02,-2.793599854918032861e+02
-1.476437530000000038e+02,-1.265062479999999994e+02,-2.799849854610655484e+02
-1.476437530000000038e+02,-1.259593729999999994e+02,-2.862349851536885126e+02
-1.476437530000000038e+02,-1.262328104999999994e+02,-2.856099851844262503e+02
-1.476437530000000038e+02,-1.262328104999999994e+02,-2.793599854918032861e+02
-1.479171905000000038e+02,-1.259593729999999994e+02,-2.781099855532787046e+02
-1.476437530000000038e+02,-1.259593729999999994e+02,-2.787349855225409669e+02
-1.476437530000000038e+02,-1.254124979999999994e+02,-2.874849850922130940e+02
-1.476437530000000038e+02,-1.256859354999999994e+02,-2.868599851229508317e+02
-1.476437530000000038e+02,-1.256859354999999994e+02,-2.781099855532787046e+02
-1.476437530000000038e+02,-1.254124979999999994e+02,-2.774849855840163855e+02
-1.476437530000000038e+02,-1.248656229999999994e+02,-2.887349850307376755e+02
-1.476437530000000038e+02,-1.251390604999999994e+02,-2.881099850614754132e+02
-1.476437530000000038e+02,-1.251390604999999994e+02,-2.768599856147540663e+02
-1.479171905000000038e+02,-1.248656229999999994e+02,-2.768599856147540663e+02
-1.476437530000000038e+02,-1.248656229999999994e+02,-2.762349856454918040e+02
-1.479171905000000038e+02,-1.248656229999999994e+02,-2.756099856762294849e+02
-1.479171905000000038e+02,-1.243187479999999994e+02,-2.893599849999999947e+02
-1.476437530000000038e+02,-1.243187479999999994e+02,-2.887349850307376755e+02
-1.476437530000000038e+02,-1.245921854999999994e+02,-2.756099856762294849e+02
-1.476437530000000038e+02,-1.240453104999999994e+02,-2.893599849999999947e+02
-1.479171905000000038e+02,-1.226781229999999994e+02,-2.881099850614754132e+02
-1.476437530000000038e+02,-1.229515604999999994e+02,-2.881099850614754132e+02
-1.476437530000000038e+02,-1.226781229999999994e+02,-2.887349850307376755e+02
-1.476437530000000038e+02,-1.226781229999999994e+02,-2.874849850922130940e+02
-1.476437530000000038e+02,-1.221312479999999994e+02,-2.887349850307376755e+02
-1.476437530000000038e+02,-1.221312479999999994e+02,-2.874849850922130940e+02
-1.476437530000000038e+02,-1.218578104999999994e+02,-2.893599849999999947e+02
-1.476437530000000038e+02,-1.215843729999999994e+02,-2.874849850922130940e+02
-1.479171905000000038e+02,-1.215843729999999994e+02,-2.768599856147540663e+02
