-1.485312560000000133e+02,-1.673328109999999924e+02,-3.139899903092783120e+02
-1.485312560000000133e+02,-1.666882799999999918e+02,-3.202399901030927367e+02
-1.485312560000000133e+02,-1.670105455000000063e+02,-3.196149901237113227e+02
-1.485312560000000133e+02,-1.666882799999999918e+02,-3.189899901443298518e+02
-1.485312560000000133e+02,-1.666882799999999918e+02,-3.164899902268040819e+02
-1.485312560000000133e+02,-1.666882799999999918e+02,-3.139899903092783120e+02
-1.485312560000000133e+02,-1.660437489999999912e+02,-3.202399901030927367e+02
-1.485312560000000133e+02,-1.660437489999999912e+02,-3.189899901443298518e+02
-1.485312560000000133e+02,-1.660437489999999912e+02,-3.164899902268040819e+02
-1.485312560000000133e+02,-1.660437489999999912e+02,-3.139899903092783120e+02
-1.485312560000000133e+02,-1.653992179999999905e+02,-3.202399901030927367e+02
-1.485312560000000133e+02,-1.653992179999999905e+02,-3.189899901443298518e+02
-1.485312560000000133e+02,-1.653992179999999905e+02,-3.164899902268040819e+02
-1.485312560000000133e+02,-1.653992179999999905e+02,-3.139899903092783120e+02
-1.485312560000000133e+02,-1.647546869999999899e+02,-3.202399901030927367e+02
-1.485312560000000133e+02,-1.650769525000000044e+02,-3.183649901649484377e+02
-1.488535214999999994e+02,-1.647546869999999899e+02,-3.183649901649484377e+02
-1.485312560000000133e+02,-1.647546869999999899e+02,-3.177399901855669668e+02
-1.485312560000000133e+02,-1.647546869999999899e+02,-3.164899902268040819e+02
-1.485312560000000133e+02,-1.647546869999999899e+02,-3.139899903092783120e+02
-1.485312560000000133e+02,-1.641101559999999893e+02,-3.202399901030927367e+02
-1.488535214999999994e+02,-1.641101559999999893e+02,-3.183649901649484377e+02
-1.485312560000000133e+02,-1.641101559999999893e+02,-3.177399901855669668e+02
-1.485312560000000133e+02,-1.641101559999999893e+02,-3.164899902268040819e+02
-1.485312560000000133e+02,-1.641101559999999893e+02,-3.139899903092783120e+02
-1.485312560000000133e+02,-1.634656249999999886e+02,-3.202399901030927367e+02
-1.488535214999999994e+02,-1.634656249999999886e+02,-3.183649901649484377e+02
-1.485312560000000133e+02,-1.634656249999999886e+02,-3.177399901855669668e+02
-1.485312560000000133e+02,-1.634656249999999886e+02,-3.164899902268040819e+02
-1.485312560000000133e+02,-1.634656249999999886e+02,-3.139899903092783120e+02
-1.485312560000000133e+02,-1.628210939999999880e+02,-3.202399901030927367e+02
-1.488535214999999994e+02,-1.628210939999999880e+02,-3.183649901649484377e+02
-1.485312560000000133e+02,-1.631433595000000025e+02,-3.171149902061855528e+02
-1.485312560000000133e+02,-1.628210939999999880e+02,-3.139899903092783120e+02
-1.485312560000000133e+02,-1.621765629999999874e+02,-3.202399901030927367e+02
-1.488535214999999994e+02,-1.621765629999999874e+02,-3.183649901649484377e+02
-1.485312560000000133e+02,-1.621765629999999874e+02,-3.139899903092783120e+02
-1.485312560000000133e+02,-1.621765629999999874e+02,-3.127399903505154271e+02
-1.485312560000000133e+02,-1.624988285000000019e+02,-3.121149903711340130e+02
-1.485312560000000133e+02,-1.621765629999999874e+02,-3.114899903917525421e+02
-1.485312560000000133e+02,-1.615320319999999867e+02,-3.202399901030927367e+02
-1.485312560000000133e+02,-1.615320319999999867e+02,-3.139899903092783120e+02
-1.485312560000000133e+02,-1.615320319999999867e+02,-3.127399903505154271e+02
-1.488535214999999994e+02,-1.615320319999999867e+02,-3.108649904123711281e+02
-1.485312560000000133e+02,-1.615320319999999867e+02,-3.114899903917525421e+02
-1.485312560000000133e+02,-1.608875009999999861e+02,-3.202399901030927367e+02
-1.485312560000000133e+02,-1.608875009999999861e+02,-3.139899903092783120e+02
-1.485312560000000133e+02,-1.608875009999999861e+02,-3.127399903505154271e+02
-1.488535214999999994e+02,-1.608875009999999861e+02,-3.108649904123711281e+02
-1.485312560000000133e+02,-1.608875009999999861e+02,-3.114899903917525421e+02
-1.485312560000000133e+02,-1.602429699999999855e+02,-3.202399901030927367e+02
-1.485312560000000133e+02,-1.605652355000000000e+02,-3.133649903298968979e+02
-1.488535214999999994e+02,-1.602429699999999855e+02,-3.133649903298968979e+02
-1.485312560000000133e+02,-1.605652355000000000e+02,-3.108649904123711281e+02
-1.485312560000000133e+02,-1.602429699999999855e+02,-3.102399904329896572e+02
-1.485312560000000133e+02,-1.595984389999999848e+02,-3.202399901030927367e+02
-1.485312560000000133e+02,-1.595984389999999848e+02,-3.102399904329896572e+02
-1.485312560000000133e+02,-1.589539079999999842e+02,-3.202399901030927367e+02
-1.485312560000000133e+02,-1.589539079999999842e+02,-3.102399904329896572e+02
-1.485312560000000133e+02,-1.583093769999999836e+02,-3.202399901030927367e+02
-1.485312560000000133e+02,-1.583093769999999836e+02,-3.102399904329896572e+02
-1.485312560000000133e+02,-1.576648460000000114e+02,-3.202399901030927367e+02
-1.485312560000000133e+02,-1.576648460000000114e+02,-3.102399904329896572e+02
-1.485312560000000133e+02,-1.570203149999999823e+02,-3.202399901030927367e+02
-1.485312560000000133e+02,-1.573425804999999968e+02,-3.096149904536082431e+02
-1.485312560000000133e+02,-1.570203149999999823e+02,-3.089899904742267722e+02
-1.485312560000000133e+02,-1.563757840000000101e+02,-3.202399901030927367e+02
-1.485312560000000133e+02,-1.563757840000000101e+02,-3.089899904742267722e+02
-1.485312560000000133e+02,-1.560535184999999956e+02,-3.196149901237113227e+02
-1.488535214999999994e+02,-1.557312530000000095e+02,-3.196149901237113227e+02
-1.485312560000000133e+02,-1.557312530000000095e+02,-3.189899901443298518e+02
-1.485312560000000133e+02,-1.557312530000000095e+02,-3.089899904742267722e+02
-1.485312560000000133e+02,-1.550867220000000088e+02,-3.189899901443298518e+02
-1.485312560000000133e+02,-1.550867220000000088e+02,-3.089899904742267722e+02
-1.485312560000000133e+02,-1.544421910000000082e+02,-3.189899901443298518e+02
-1.485312560000000133e+02,-1.547644564999999943e+02,-3.083649904948453582e+02
-1.485312560000000133e+02,-1.541199254999999937e+02,-3.183649901649484377e+02
-1.485312560000000133e+02,-1.537976600000000076e+02,-3.177399901855669668e+02
-1.485312560000000133e+02,-1.531531290000000070e+02,-3.177399901855669668e+02
-1.485312560000000133e+02,-1.525085980000000063e+02,-3.177399901855669668e+02
-1.488535214999999994e+02,-1.525085980000000063e+02,-3.146149902886597829e+02
-1.485312560000000133e+02,-1.528308634999999924e+02,-3.146149902886597829e+02
-1.485312560000000133e+02,-1.525085980000000063e+02,-3.152399902680411969e+02
-1.485312560000000133e+02,-1.525085980000000063e+02,-3.139899903092783120e+02
-1.485312560000000133e+02,-1.518640670000000057e+02,-3.177399901855669668e+02
-1.488535214999999994e+02,-1.518640670000000057e+02,-3.158649902474226678e+02
-1.485312560000000133e+02,-1.521863324999999918e+02,-3.158649902474226678e+02
-1.485312560000000133e+02,-1.518640670000000057e+02,-3.164899902268040819e+02
-1.488535214999999994e+02,-1.518640670000000057e+02,-3.146149902886597829e+02
-1.485312560000000133e+02,-1.518640670000000057e+02,-3.139899903092783120e+02
-1.485312560000000133e+02,-1.512195360000000051e+02,-3.177399901855669668e+02
-1.485312560000000133e+02,-1.512195360000000051e+02,-3.164899902268040819e+02
-1.488535214999999994e+02,-1.512195360000000051e+02,-3.146149902886597829e+02
-1.485312560000000133e+02,-1.512195360000000051e+02,-3.139899903092783120e+02
-1.488535214999999994e+02,-1.505750050000000044e+02,-3.221149900412370926e+02
-1.485312560000000133e+02,-1.505750050000000044e+02,-3.227399900206185066e+02
-1.485312560000000133e+02,-1.508972704999999905e+02,-3.221149900412370926e+02
-1.485312560000000133e+02,-1.505750050000000044e+02,-3.214899900618556217e+02
-1.488535214999999994e+02,-1.505750050000000044e+02,-3.183649901649484377e+02
-1.485312560000000133e+02,-1.505750050000000044e+02,-3.189899901443298518e+02
-1.485312560000000133e+02,-1.508972704999999905e+02,-3.183649901649484377e+02
-1.485312560000000133e+02,-1.505750050000000044e+02,-3.164899902268040819e+02
-1.488535214999999994e+02,-1.505750050000000044e+02,-3.146149902886597829e+02
-1.485312560000000133e+02,-1.505750050000000044e+02,-3.139899903092783120e+02
-1.485312560000000133e+02,-1.499304740000000038e+02,-3.227399900206185066e+02
-1.485312560000000133e+02,-1.502527394999999899e+02,-3.208649900824742076e+02
-1.488535214999999994e+02,-1.499304740000000038e+02,-3.208649900824742076e+02
-1.485312560000000133e+02,-1.502527394999999899e+02,-3.196149901237113227e+02
-1.485312560000000133e+02,-1.499304740000000038e+02,-3.164899902268040819e+02
-1.488535214999999994e+02,-1.499304740000000038e+02,-3.146149902886597829e+02
-1.485312560000000133e+02,-1.499304740000000038e+02,-3.139899903092783120e+02
-1.488535214999999994e+02,-1.492859430000000032e+02,-3.221149900412370926e+02
-1.485312560000000133e+02,-1.492859430000000032e+02,-3.227399900206185066e+02
-1.488535214999999994e+02,-1.492859430000000032e+02,-3.208649900824742076e+02
-1.485312560000000133e+02,-1.492859430000000032e+02,-3.164899902268040819e+02
-1.488535214999999994e+02,-1.492859430000000032e+02,-3.146149902886597829e+02
-1.485312560000000133e+02,-1.492859430000000032e+02,-3.139899903092783120e+02
-1.485312560000000133e+02,-1.489636774999999886e+02,-3.221149900412370926e+02
-1.488535214999999994e+02,-1.486414120000000025e+02,-3.208649900824742076e+02
-1.485312560000000133e+02,-1.486414120000000025e+02,-3.214899900618556217e+02
-1.488535214999999994e+02,-1.486414120000000025e+02,-3.158649902474226678e+02
-1.485312560000000133e+02,-1.486414120000000025e+02,-3.164899902268040819e+02
-1.488535214999999994e+02,-1.486414120000000025e+02,-3.146149902886597829e+02
-1.485312560000000133e+02,-1.486414120000000025e+02,-3.139899903092783120e+02
-1.485312560000000133e+02,-1.483191464999999880e+02,-3.208649900824742076e+02
-1.485312560000000133e+02,-1.479968810000000019e+02,-3.202399901030927367e+02
-1.488535214999999994e+02,-1.479968810000000019e+02,-3.158649902474226678e+02
-1.485312560000000133e+02,-1.479968810000000019e+02,-3.164899902268040819e+02
-1.488535214999999994e+02,-1.479968810000000019e+02,-3.146149902886597829e+02
-1.485312560000000133e+02,-1.479968810000000019e+02,-3.139899903092783120e+02
-1.485312560000000133e+02,-1.483191464999999880e+02,-3.083649904948453582e+02
-1.485312560000000133e+02,-1.479968810000000019e+02,-3.089899904742267722e+02
-1.485312560000000133e+02,-1.473523500000000013e+02,-3.202399901030927367e+02
-1.488535214999999994e+02,-1.473523500000000013e+02,-3.183649901649484377e+02
-1.485312560000000133e+02,-1.476746154999999874e+02,-3.183649901649484377e+02
-1.485312560000000133e+02,-1.473523500000000013e+02,-3.189899901443298518e+02
-1.485312560000000133e+02,-1.473523500000000013e+02,-3.177399901855669668e+02
-1.485312560000000133e+02,-1.476746154999999874e+02,-3.158649902474226678e+02
-1.485312560000000133e+02,-1.473523500000000013e+02,-3.152399902680411969e+02
-1.485312560000000133e+02,-1.473523500000000013e+02,-3.139899903092783120e+02
-1.485312560000000133e+02,-1.473523500000000013e+02,-3.089899904742267722e+02
-1.485312560000000133e+02,-1.470300844999999867e+02,-3.196149901237113227e+02
-1.488535214999999994e+02,-1.467078190000000006e+02,-3.196149901237113227e+02
-1.488535214999999994e+02,-1.467078190000000006e+02,-3.183649901649484377e+02
-1.485312560000000133e+02,-1.470300844999999867e+02,-3.171149902061855528e+02
-1.485312560000000133e+02,-1.467078190000000006e+02,-3.164899902268040819e+02
-1.485312560000000133e+02,-1.467078190000000006e+02,-3.152399902680411969e+02
-1.485312560000000133e+02,-1.467078190000000006e+02,-3.139899903092783120e+02
-1.485312560000000133e+02,-1.467078190000000006e+02,-3.089899904742267722e+02
-1.488535214999999994e+02,-1.460632880000000000e+02,-3.196149901237113227e+02
-1.488535214999999994e+02,-1.460632880000000000e+02,-3.183649901649484377e+02
-1.485312560000000133e+02,-1.463855534999999861e+02,-3.158649902474226678e+02
-1.488535214999999994e+02,-1.460632880000000000e+02,-3.158649902474226678e+02
-1.485312560000000133e+02,-1.460632880000000000e+02,-3.139899903092783120e+02
-1.485312560000000133e+02,-1.460632880000000000e+02,-3.089899904742267722e+02
-1.488535214999999994e+02,-1.454187569999999994e+02,-3.183649901649484377e+02
-1.488535214999999994e+02,-1.454187569999999994e+02,-3.158649902474226678e+02
-1.485312560000000133e+02,-1.454187569999999994e+02,-3.139899903092783120e+02
-1.485312560000000133e+02,-1.454187569999999994e+02,-3.089899904742267722e+02
-1.485312560000000133e+02,-1.447742259999999987e+02,-3.139899903092783120e+02
-1.485312560000000133e+02,-1.447742259999999987e+02,-3.089899904742267722e+02
-1.485312560000000133e+02,-1.441296949999999981e+02,-3.139899903092783120e+02
-1.485312560000000133e+02,-1.441296949999999981e+02,-3.089899904742267722e+02
-1.485312560000000133e+02,-1.434851639999999975e+02,-3.139899903092783120e+02
-1.485312560000000133e+02,-1.434851639999999975e+02,-3.089899904742267722e+02
-1.485312560000000133e+02,-1.428406329999999969e+02,-3.139899903092783120e+02
-1.485312560000000133e+02,-1.431628984999999830e+02,-3.108649904123711281e+02
-1.485312560000000133e+02,-1.428406329999999969e+02,-3.114899903917525421e+02
-1.485312560000000133e+02,-1.431628984999999830e+02,-3.096149904536082431e+02
-1.485312560000000133e+02,-1.421961019999999962e+02,-3.139899903092783120e+02
-1.485312560000000133e+02,-1.421961019999999962e+02,-3.114899903917525421e+02
-1.485312560000000133e+02,-1.415515709999999956e+02,-3.139899903092783120e+02
-1.485312560000000133e+02,-1.415515709999999956e+02,-3.114899903917525421e+02
-1.485312560000000133e+02,-1.409070399999999950e+02,-3.139899903092783120e+02
-1.485312560000000133e+02,-1.409070399999999950e+02,-3.114899903917525421e+02
-1.485312560000000133e+02,-1.402625089999999943e+02,-3.139899903092783120e+02
-1.485312560000000133e+02,-1.402625089999999943e+02,-3.114899903917525421e+02
-1.488535214999999994e+02,-1.396179779999999937e+02,-3.171149902061855528e+02
-1.485312560000000133e+02,-1.396179779999999937e+02,-3.139899903092783120e+02
-1.488535214999999994e+02,-1.396179779999999937e+02,-3.121149903711340130e+02
-1.485312560000000133e+02,-1.396179779999999937e+02,-3.114899903917525421e+02
-1.488535214999999994e+02,-1.389734469999999931e+02,-3.171149902061855528e+02
-1.488535214999999994e+02,-1.389734469999999931e+02,-3.133649903298968979e+02
-1.485312560000000133e+02,-1.389734469999999931e+02,-3.139899903092783120e+02
-1.485312560000000133e+02,-1.389734469999999931e+02,-3.127399903505154271e+02
-1.485312560000000133e+02,-1.392957125000000076e+02,-3.121149903711340130e+02
-1.488535214999999994e+02,-1.383289159999999924e+02,-3.171149902061855528e+02
-1.485312560000000133e+02,-1.386511815000000070e+02,-3.133649903298968979e+02
-1.488535214999999994e+02,-1.376843849999999918e+02,-3.171149902061855528e+02
-1.488535214999999994e+02,-1.370398539999999912e+02,-3.171149902061855528e+02
-1.478867250000000126e+02,-1.705554659999999956e+02,-3.164899902268040819e+02
-1.478867250000000126e+02,-1.708777315000000101e+02,-3.158649902474226678e+02
-1.478867250000000126e+02,-1.705554659999999956e+02,-3.152399902680411969e+02
-1.478867250000000126e+02,-1.699109349999999949e+02,-3.164899902268040819e+02
-1.478867250000000126e+02,-1.699109349999999949e+02,-3.152399902680411969e+02
-1.478867250000000126e+02,-1.692664039999999943e+02,-3.164899902268040819e+02
-1.478867250000000126e+02,-1.692664039999999943e+02,-3.152399902680411969e+02
-1.478867250000000126e+02,-1.686218729999999937e+02,-3.164899902268040819e+02
-1.478867250000000126e+02,-1.686218729999999937e+02,-3.152399902680411969e+02
-1.478867250000000126e+02,-1.682996075000000076e+02,-3.158649902474226678e+02
-1.482089904999999987e+02,-1.679773419999999930e+02,-3.158649902474226678e+02
-1.482089904999999987e+02,-1.679773419999999930e+02,-3.146149902886597829e+02
-1.482089904999999987e+02,-1.673328109999999924e+02,-3.158649902474226678e+02
-1.482089904999999987e+02,-1.673328109999999924e+02,-3.146149902886597829e+02
-1.482089904999999987e+02,-1.666882799999999918e+02,-3.196149901237113227e+02
-1.482089904999999987e+02,-1.666882799999999918e+02,-3.158649902474226678e+02
-1.482089904999999987e+02,-1.666882799999999918e+02,-3.146149902886597829e+02
-1.482089904999999987e+02,-1.660437489999999912e+02,-3.196149901237113227e+02
-1.482089904999999987e+02,-1.660437489999999912e+02,-3.158649902474226678e+02
-1.482089904999999987e+02,-1.660437489999999912e+02,-3.146149902886597829e+02
-1.482089904999999987e+02,-1.653992179999999905e+02,-3.196149901237113227e+02
-1.482089904999999987e+02,-1.653992179999999905e+02,-3.183649901649484377e+02
-1.478867250000000126e+02,-1.657214835000000051e+02,-3.183649901649484377e+02
-1.478867250000000126e+02,-1.653992179999999905e+02,-3.189899901443298518e+02
-1.478867250000000126e+02,-1.653992179999999905e+02,-3.177399901855669668e+02
-1.482089904999999987e+02,-1.653992179999999905e+02,-3.158649902474226678e+02
-1.482089904999999987e+02,-1.653992179999999905e+02,-3.146149902886597829e+02
-1.482089904999999987e+02,-1.647546869999999899e+02,-3.196149901237113227e+02
-1.482089904999999987e+02,-1.650769525000000044e+02,-3.189899901443298518e+02
-1.478867250000000126e+02,-1.647546869999999899e+02,-3.189899901443298518e+02
-1.478867250000000126e+02,-1.647546869999999899e+02,-3.177399901855669668e+02
-1.482089904999999987e+02,-1.647546869999999899e+02,-3.158649902474226678e+02
-1.482089904999999987e+02,-1.647546869999999899e+02,-3.146149902886597829e+02
-1.482089904999999987e+02,-1.641101559999999893e+02,-3.196149901237113227e+02
-1.478867250000000126e+02,-1.641101559999999893e+02,-3.189899901443298518e+02
-1.478867250000000126e+02,-1.641101559999999893e+02,-3.177399901855669668e+02
-1.482089904999999987e+02,-1.641101559999999893e+02,-3.158649902474226678e+02
-1.482089904999999987e+02,-1.641101559999999893e+02,-3.146149902886597829e+02
-1.478867250000000126e+02,-1.634656249999999886e+02,-3.202399901030927367e+02
-1.478867250000000126e+02,-1.637878905000000032e+02,-3.196149901237113227e+02
-1.478867250000000126e+02,-1.634656249999999886e+02,-3.177399901855669668e+02
-1.482089904999999987e+02,-1.634656249999999886e+02,-3.158649902474226678e+02
-1.482089904999999987e+02,-1.634656249999999886e+02,-3.146149902886597829e+02
-1.482089904999999987e+02,-1.634656249999999886e+02,-3.121149903711340130e+02
-1.478867250000000126e+02,-1.634656249999999886e+02,-3.127399903505154271e+02
-1.478867250000000126e+02,-1.637878905000000032e+02,-3.121149903711340130e+02
-1.478867250000000126e+02,-1.634656249999999886e+02,-3.114899903917525421e+02
-1.478867250000000126e+02,-1.628210939999999880e+02,-3.202399901030927367e+02
-1.478867250000000126e+02,-1.631433595000000025e+02,-3.171149902061855528e+02
-1.482089904999999987e+02,-1.628210939999999880e+02,-3.158649902474226678e+02
-1.478867250000000126e+02,-1.628210939999999880e+02,-3.164899902268040819e+02
-1.482089904999999987e+02,-1.628210939999999880e+02,-3.146149902886597829e+02
-1.482089904999999987e+02,-1.628210939999999880e+02,-3.121149903711340130e+02
-1.478867250000000126e+02,-1.628210939999999880e+02,-3.127399903505154271e+02
-1.478867250000000126e+02,-1.628210939999999880e+02,-3.114899903917525421e+02
-1.478867250000000126e+02,-1.621765629999999874e+02,-3.202399901030927367e+02
-1.482089904999999987e+02,-1.621765629999999874e+02,-3.158649902474226678e+02
-1.478867250000000126e+02,-1.621765629999999874e+02,-3.164899902268040819e+02
-1.482089904999999987e+02,-1.621765629999999874e+02,-3.146149902886597829e+02
-1.478867250000000126e+02,-1.621765629999999874e+02,-3.127399903505154271e+02
-1.478867250000000126e+02,-1.621765629999999874e+02,-3.114899903917525421e+02
-1.478867250000000126e+02,-1.615320319999999867e+02,-3.202399901030927367e+02
-1.482089904999999987e+02,-1.615320319999999867e+02,-3.158649902474226678e+02
-1.478867250000000126e+02,-1.615320319999999867e+02,-3.164899902268040819e+02
-1.482089904999999987e+02,-1.615320319999999867e+02,-3.146149902886597829e+02
-1.478867250000000126e+02,-1.615320319999999867e+02,-3.127399903505154271e+02
-1.478867250000000126e+02,-1.615320319999999867e+02,-3.114899903917525421e+02
-1.478867250000000126e+02,-1.608875009999999861e+02,-3.202399901030927367e+02
-1.482089904999999987e+02,-1.608875009999999861e+02,-3.158649902474226678e+02
-1.478867250000000126e+02,-1.608875009999999861e+02,-3.164899902268040819e+02
-1.478867250000000126e+02,-1.608875009999999861e+02,-3.152399902680411969e+02
-1.478867250000000126e+02,-1.612097665000000006e+02,-3.146149902886597829e+02
-1.478867250000000126e+02,-1.608875009999999861e+02,-3.139899903092783120e+02
-1.478867250000000126e+02,-1.608875009999999861e+02,-3.127399903505154271e+02
-1.478867250000000126e+02,-1.608875009999999861e+02,-3.114899903917525421e+02
-1.478867250000000126e+02,-1.602429699999999855e+02,-3.202399901030927367e+02
-1.482089904999999987e+02,-1.602429699999999855e+02,-3.158649902474226678e+02
-1.478867250000000126e+02,-1.602429699999999855e+02,-3.164899902268040819e+02
-1.478867250000000126e+02,-1.602429699999999855e+02,-3.152399902680411969e+02
-1.478867250000000126e+02,-1.605652355000000000e+02,-3.133649903298968979e+02
-1.482089904999999987e+02,-1.602429699999999855e+02,-3.108649904123711281e+02
-1.478867250000000126e+02,-1.602429699999999855e+02,-3.114899903917525421e+02
-1.478867250000000126e+02,-1.595984389999999848e+02,-3.202399901030927367e+02
-1.482089904999999987e+02,-1.595984389999999848e+02,-3.158649902474226678e+02
-1.478867250000000126e+02,-1.595984389999999848e+02,-3.164899902268040819e+02
-1.478867250000000126e+02,-1.595984389999999848e+02,-3.152399902680411969e+02
-1.478867250000000126e+02,-1.599207044999999994e+02,-3.108649904123711281e+02
-1.478867250000000126e+02,-1.595984389999999848e+02,-3.102399904329896572e+02
-1.478867250000000126e+02,-1.589539079999999842e+02,-3.202399901030927367e+02
-1.482089904999999987e+02,-1.589539079999999842e+02,-3.158649902474226678e+02
-1.478867250000000126e+02,-1.589539079999999842e+02,-3.164899902268040819e+02
-1.478867250000000126e+02,-1.589539079999999842e+02,-3.152399902680411969e+02
-1.478867250000000126e+02,-1.589539079999999842e+02,-3.102399904329896572e+02
-1.478867250000000126e+02,-1.583093769999999836e+02,-3.202399901030927367e+02
-1.478867250000000126e+02,-1.586316424999999981e+02,-3.158649902474226678e+02
-1.478867250000000126e+02,-1.583093769999999836e+02,-3.102399904329896572e+02
-1.478867250000000126e+02,-1.576648460000000114e+02,-3.202399901030927367e+02
-1.478867250000000126e+02,-1.576648460000000114e+02,-3.102399904329896572e+02
-1.478867250000000126e+02,-1.570203149999999823e+02,-3.202399901030927367e+02
-1.478867250000000126e+02,-1.573425804999999968e+02,-3.096149904536082431e+02
-1.478867250000000126e+02,-1.570203149999999823e+02,-3.089899904742267722e+02
-1.478867250000000126e+02,-1.566980494999999962e+02,-3.196149901237113227e+02
-1.482089904999999987e+02,-1.563757840000000101e+02,-3.196149901237113227e+02
-1.478867250000000126e+02,-1.563757840000000101e+02,-3.189899901443298518e+02
-1.478867250000000126e+02,-1.563757840000000101e+02,-3.089899904742267722e+02
-1.478867250000000126e+02,-1.557312530000000095e+02,-3.189899901443298518e+02
-1.478867250000000126e+02,-1.557312530000000095e+02,-3.089899904742267722e+02
-1.478867250000000126e+02,-1.554089874999999950e+02,-3.183649901649484377e+02
-1.482089904999999987e+02,-1.550867220000000088e+02,-3.183649901649484377e+02
-1.478867250000000126e+02,-1.550867220000000088e+02,-3.177399901855669668e+02
-1.478867250000000126e+02,-1.550867220000000088e+02,-3.089899904742267722e+02
-1.482089904999999987e+02,-1.544421910000000082e+02,-3.183649901649484377e+02
-1.478867250000000126e+02,-1.544421910000000082e+02,-3.177399901855669668e+02
-1.478867250000000126e+02,-1.547644564999999943e+02,-3.083649904948453582e+02
-1.478867250000000126e+02,-1.537976600000000076e+02,-3.177399901855669668e+02
-1.478867250000000126e+02,-1.531531290000000070e+02,-3.177399901855669668e+02
-1.482089904999999987e+02,-1.531531290000000070e+02,-3.146149902886597829e+02
-1.478867250000000126e+02,-1.534753944999999931e+02,-3.146149902886597829e+02
-1.478867250000000126e+02,-1.531531290000000070e+02,-3.152399902680411969e+02
-1.478867250000000126e+02,-1.531531290000000070e+02,-3.139899903092783120e+02
-1.478867250000000126e+02,-1.525085980000000063e+02,-3.177399901855669668e+02
-1.478867250000000126e+02,-1.525085980000000063e+02,-3.152399902680411969e+02
-1.478867250000000126e+02,-1.525085980000000063e+02,-3.139899903092783120e+02
-1.478867250000000126e+02,-1.518640670000000057e+02,-3.177399901855669668e+02
-1.478867250000000126e+02,-1.521863324999999918e+02,-3.158649902474226678e+02
-1.478867250000000126e+02,-1.518640670000000057e+02,-3.164899902268040819e+02
-1.478867250000000126e+02,-1.518640670000000057e+02,-3.139899903092783120e+02
-1.478867250000000126e+02,-1.512195360000000051e+02,-3.177399901855669668e+02
-1.478867250000000126e+02,-1.512195360000000051e+02,-3.164899902268040819e+02
-1.478867250000000126e+02,-1.512195360000000051e+02,-3.139899903092783120e+02
-1.478867250000000126e+02,-1.505750050000000044e+02,-3.227399900206185066e+02
-1.478867250000000126e+02,-1.508972704999999905e+02,-3.221149900412370926e+02
-1.478867250000000126e+02,-1.508972704999999905e+02,-3.208649900824742076e+02
-1.482089904999999987e+02,-1.505750050000000044e+02,-3.208649900824742076e+02
-1.478867250000000126e+02,-1.505750050000000044e+02,-3.202399901030927367e+02
-1.478867250000000126e+02,-1.505750050000000044e+02,-3.189899901443298518e+02
-1.478867250000000126e+02,-1.508972704999999905e+02,-3.183649901649484377e+02
-1.478867250000000126e+02,-1.505750050000000044e+02,-3.164899902268040819e+02
-1.478867250000000126e+02,-1.505750050000000044e+02,-3.139899903092783120e+02
-1.478867250000000126e+02,-1.499304740000000038e+02,-3.227399900206185066e+02
-1.478867250000000126e+02,-1.502527394999999899e+02,-3.196149901237113227e+02
-1.478867250000000126e+02,-1.499304740000000038e+02,-3.164899902268040819e+02
-1.478867250000000126e+02,-1.499304740000000038e+02,-3.139899903092783120e+02
-1.478867250000000126e+02,-1.492859430000000032e+02,-3.227399900206185066e+02
-1.478867250000000126e+02,-1.492859430000000032e+02,-3.164899902268040819e+02
-1.478867250000000126e+02,-1.492859430000000032e+02,-3.139899903092783120e+02
-1.478867250000000126e+02,-1.489636774999999886e+02,-3.221149900412370926e+02
-1.478867250000000126e+02,-1.486414120000000025e+02,-3.214899900618556217e+02
-1.478867250000000126e+02,-1.486414120000000025e+02,-3.164899902268040819e+02
-1.478867250000000126e+02,-1.486414120000000025e+02,-3.139899903092783120e+02
-1.482089904999999987e+02,-1.479968810000000019e+02,-3.208649900824742076e+02
-1.478867250000000126e+02,-1.479968810000000019e+02,-3.214899900618556217e+02
-1.482089904999999987e+02,-1.479968810000000019e+02,-3.183649901649484377e+02
-1.478867250000000126e+02,-1.483191464999999880e+02,-3.183649901649484377e+02
-1.478867250000000126e+02,-1.479968810000000019e+02,-3.189899901443298518e+02
-1.478867250000000126e+02,-1.479968810000000019e+02,-3.177399901855669668e+02
-1.478867250000000126e+02,-1.479968810000000019e+02,-3.164899902268040819e+02
-1.478867250000000126e+02,-1.479968810000000019e+02,-3.139899903092783120e+02
-1.478867250000000126e+02,-1.483191464999999880e+02,-3.083649904948453582e+02
-1.478867250000000126e+02,-1.479968810000000019e+02,-3.089899904742267722e+02
-1.478867250000000126e+02,-1.476746154999999874e+02,-3.208649900824742076e+02
-1.478867250000000126e+02,-1.476746154999999874e+02,-3.196149901237113227e+02
-1.482089904999999987e+02,-1.473523500000000013e+02,-3.196149901237113227e+02
-1.478867250000000126e+02,-1.473523500000000013e+02,-3.177399901855669668e+02
-1.478867250000000126e+02,-1.476746154999999874e+02,-3.158649902474226678e+02
-1.478867250000000126e+02,-1.473523500000000013e+02,-3.152399902680411969e+02
-1.478867250000000126e+02,-1.473523500000000013e+02,-3.139899903092783120e+02
-1.478867250000000126e+02,-1.473523500000000013e+02,-3.089899904742267722e+02
-1.478867250000000126e+02,-1.470300844999999867e+02,-3.171149902061855528e+02
-1.478867250000000126e+02,-1.467078190000000006e+02,-3.164899902268040819e+02
-1.478867250000000126e+02,-1.467078190000000006e+02,-3.152399902680411969e+02
-1.478867250000000126e+02,-1.467078190000000006e+02,-3.139899903092783120e+02
-1.478867250000000126e+02,-1.467078190000000006e+02,-3.089899904742267722e+02
-1.478867250000000126e+02,-1.463855534999999861e+02,-3.158649902474226678e+02
-1.478867250000000126e+02,-1.460632880000000000e+02,-3.139899903092783120e+02
-1.478867250000000126e+02,-1.460632880000000000e+02,-3.089899904742267722e+02
-1.478867250000000126e+02,-1.454187569999999994e+02,-3.139899903092783120e+02
-1.478867250000000126e+02,-1.454187569999999994e+02,-3.089899904742267722e+02
-1.478867250000000126e+02,-1.447742259999999987e+02,-3.139899903092783120e+02
-1.478867250000000126e+02,-1.447742259999999987e+02,-3.089899904742267722e+02
-1.478867250000000126e+02,-1.441296949999999981e+02,-3.139899903092783120e+02
-1.478867250000000126e+02,-1.441296949999999981e+02,-3.089899904742267722e+02
-1.478867250000000126e+02,-1.434851639999999975e+02,-3.139899903092783120e+02
-1.478867250000000126e+02,-1.434851639999999975e+02,-3.089899904742267722e+02
-1.478867250000000126e+02,-1.428406329999999969e+02,-3.139899903092783120e+02
-1.482089904999999987e+02,-1.428406329999999969e+02,-3.108649904123711281e+02
-1.478867250000000126e+02,-1.428406329999999969e+02,-3.102399904329896572e+02
-1.478867250000000126e+02,-1.431628984999999830e+02,-3.096149904536082431e+02
-1.478867250000000126e+02,-1.421961019999999962e+02,-3.139899903092783120e+02
-1.478867250000000126e+02,-1.425183675000000108e+02,-3.108649904123711281e+02
-1.478867250000000126e+02,-1.421961019999999962e+02,-3.114899903917525421e+02
-1.478867250000000126e+02,-1.415515709999999956e+02,-3.139899903092783120e+02
-1.478867250000000126e+02,-1.415515709999999956e+02,-3.114899903917525421e+02
-1.478867250000000126e+02,-1.409070399999999950e+02,-3.139899903092783120e+02
-1.482089904999999987e+02,-1.409070399999999950e+02,-3.121149903711340130e+02
-1.478867250000000126e+02,-1.412293055000000095e+02,-3.121149903711340130e+02
-1.478867250000000126e+02,-1.409070399999999950e+02,-3.127399903505154271e+02
-1.478867250000000126e+02,-1.402625089999999943e+02,-3.139899903092783120e+02
-1.482089904999999987e+02,-1.402625089999999943e+02,-3.121149903711340130e+02
-1.478867250000000126e+02,-1.402625089999999943e+02,-3.127399903505154271e+02
-1.478867250000000126e+02,-1.396179779999999937e+02,-3.139899903092783120e+02
-1.482089904999999987e+02,-1.396179779999999937e+02,-3.121149903711340130e+02
-1.478867250000000126e+02,-1.396179779999999937e+02,-3.127399903505154271e+02
-1.478867250000000126e+02,-1.392957125000000076e+02,-3.133649903298968979e+02
-1.482089904999999987e+02,-1.389734469999999931e+02,-3.133649903298968979e+02
-1.475644594999999981e+02,-1.705554659999999956e+02,-3.158649902474226678e+02
-1.475644594999999981e+02,-1.699109349999999949e+02,-3.158649902474226678e+02
-1.475644594999999981e+02,-1.692664039999999943e+02,-3.158649902474226678e+02
-1.475644594999999981e+02,-1.686218729999999937e+02,-3.158649902474226678e+02
-1.475644594999999981e+02,-1.660437489999999912e+02,-3.183649901649484377e+02
-1.472421940000000120e+02,-1.660437489999999912e+02,-3.189899901443298518e+02
-1.472421940000000120e+02,-1.663660145000000057e+02,-3.183649901649484377e+02
-1.472421940000000120e+02,-1.660437489999999912e+02,-3.177399901855669668e+02
-1.472421940000000120e+02,-1.653992179999999905e+02,-3.189899901443298518e+02
-1.472421940000000120e+02,-1.653992179999999905e+02,-3.177399901855669668e+02
-1.472421940000000120e+02,-1.647546869999999899e+02,-3.189899901443298518e+02
-1.472421940000000120e+02,-1.647546869999999899e+02,-3.177399901855669668e+02
-1.472421940000000120e+02,-1.641101559999999893e+02,-3.189899901443298518e+02
-1.472421940000000120e+02,-1.641101559999999893e+02,-3.177399901855669668e+02
-1.475644594999999981e+02,-1.641101559999999893e+02,-3.121149903711340130e+02
-1.472421940000000120e+02,-1.641101559999999893e+02,-3.127399903505154271e+02
-1.472421940000000120e+02,-1.644324215000000038e+02,-3.121149903711340130e+02
-1.472421940000000120e+02,-1.641101559999999893e+02,-3.114899903917525421e+02
-1.472421940000000120e+02,-1.634656249999999886e+02,-3.202399901030927367e+02
-1.472421940000000120e+02,-1.637878905000000032e+02,-3.196149901237113227e+02
-1.472421940000000120e+02,-1.634656249999999886e+02,-3.177399901855669668e+02
-1.472421940000000120e+02,-1.634656249999999886e+02,-3.127399903505154271e+02
-1.472421940000000120e+02,-1.634656249999999886e+02,-3.114899903917525421e+02
-1.472421940000000120e+02,-1.628210939999999880e+02,-3.202399901030927367e+02
-1.472421940000000120e+02,-1.631433595000000025e+02,-3.171149902061855528e+02
-1.472421940000000120e+02,-1.628210939999999880e+02,-3.164899902268040819e+02
-1.472421940000000120e+02,-1.628210939999999880e+02,-3.127399903505154271e+02
-1.472421940000000120e+02,-1.628210939999999880e+02,-3.114899903917525421e+02
-1.472421940000000120e+02,-1.621765629999999874e+02,-3.202399901030927367e+02
-1.472421940000000120e+02,-1.621765629999999874e+02,-3.164899902268040819e+02
-1.472421940000000120e+02,-1.621765629999999874e+02,-3.127399903505154271e+02
-1.472421940000000120e+02,-1.621765629999999874e+02,-3.114899903917525421e+02
-1.472421940000000120e+02,-1.615320319999999867e+02,-3.202399901030927367e+02
-1.472421940000000120e+02,-1.615320319999999867e+02,-3.164899902268040819e+02
-1.472421940000000120e+02,-1.615320319999999867e+02,-3.127399903505154271e+02
-1.472421940000000120e+02,-1.615320319999999867e+02,-3.114899903917525421e+02
-1.472421940000000120e+02,-1.608875009999999861e+02,-3.202399901030927367e+02
-1.472421940000000120e+02,-1.608875009999999861e+02,-3.164899902268040819e+02
-1.475644594999999981e+02,-1.608875009999999861e+02,-3.146149902886597829e+02
-1.472421940000000120e+02,-1.608875009999999861e+02,-3.127399903505154271e+02
-1.472421940000000120e+02,-1.608875009999999861e+02,-3.114899903917525421e+02
-1.472421940000000120e+02,-1.602429699999999855e+02,-3.202399901030927367e+02
-1.472421940000000120e+02,-1.602429699999999855e+02,-3.164899902268040819e+02
-1.472421940000000120e+02,-1.602429699999999855e+02,-3.152399902680411969e+02
-1.472421940000000120e+02,-1.605652355000000000e+02,-3.146149902886597829e+02
-1.472421940000000120e+02,-1.605652355000000000e+02,-3.133649903298968979e+02
-1.472421940000000120e+02,-1.602429699999999855e+02,-3.114899903917525421e+02
-1.472421940000000120e+02,-1.595984389999999848e+02,-3.202399901030927367e+02
-1.472421940000000120e+02,-1.595984389999999848e+02,-3.164899902268040819e+02
-1.472421940000000120e+02,-1.595984389999999848e+02,-3.152399902680411969e+02
-1.475644594999999981e+02,-1.595984389999999848e+02,-3.108649904123711281e+02
-1.472421940000000120e+02,-1.595984389999999848e+02,-3.114899903917525421e+02
-1.472421940000000120e+02,-1.589539079999999842e+02,-3.202399901030927367e+02
-1.472421940000000120e+02,-1.589539079999999842e+02,-3.164899902268040819e+02
-1.472421940000000120e+02,-1.589539079999999842e+02,-3.152399902680411969e+02
-1.475644594999999981e+02,-1.589539079999999842e+02,-3.108649904123711281e+02
-1.472421940000000120e+02,-1.589539079999999842e+02,-3.114899903917525421e+02
-1.472421940000000120e+02,-1.583093769999999836e+02,-3.202399901030927367e+02
-1.475644594999999981e+02,-1.583093769999999836e+02,-3.158649902474226678e+02
-1.472421940000000120e+02,-1.583093769999999836e+02,-3.164899902268040819e+02
-1.472421940000000120e+02,-1.583093769999999836e+02,-3.152399902680411969e+02
-1.472421940000000120e+02,-1.586316424999999981e+02,-3.108649904123711281e+02
-1.472421940000000120e+02,-1.583093769999999836e+02,-3.102399904329896572e+02
-1.472421940000000120e+02,-1.576648460000000114e+02,-3.202399901030927367e+02
-1.472421940000000120e+02,-1.579871114999999975e+02,-3.158649902474226678e+02
-1.472421940000000120e+02,-1.576648460000000114e+02,-3.102399904329896572e+02
-1.472421940000000120e+02,-1.570203149999999823e+02,-3.202399901030927367e+02
-1.475644594999999981e+02,-1.570203149999999823e+02,-3.096149904536082431e+02
-1.472421940000000120e+02,-1.570203149999999823e+02,-3.102399904329896572e+02
-1.472421940000000120e+02,-1.566980494999999962e+02,-3.196149901237113227e+02
-1.472421940000000120e+02,-1.563757840000000101e+02,-3.189899901443298518e+02
-1.472421940000000120e+02,-1.566980494999999962e+02,-3.096149904536082431e+02
-1.472421940000000120e+02,-1.563757840000000101e+02,-3.089899904742267722e+02
-1.472421940000000120e+02,-1.560535184999999956e+02,-3.183649901649484377e+02
-1.475644594999999981e+02,-1.557312530000000095e+02,-3.183649901649484377e+02
-1.472421940000000120e+02,-1.557312530000000095e+02,-3.177399901855669668e+02
-1.472421940000000120e+02,-1.557312530000000095e+02,-3.089899904742267722e+02
-1.472421940000000120e+02,-1.550867220000000088e+02,-3.177399901855669668e+02
-1.472421940000000120e+02,-1.550867220000000088e+02,-3.089899904742267722e+02
-1.472421940000000120e+02,-1.544421910000000082e+02,-3.177399901855669668e+02
-1.475644594999999981e+02,-1.544421910000000082e+02,-3.146149902886597829e+02
-1.472421940000000120e+02,-1.547644564999999943e+02,-3.146149902886597829e+02
-1.472421940000000120e+02,-1.544421910000000082e+02,-3.152399902680411969e+02
-1.472421940000000120e+02,-1.544421910000000082e+02,-3.139899903092783120e+02
-1.472421940000000120e+02,-1.547644564999999943e+02,-3.083649904948453582e+02
-1.472421940000000120e+02,-1.537976600000000076e+02,-3.177399901855669668e+02
-1.475644594999999981e+02,-1.537976600000000076e+02,-3.146149902886597829e+02
-1.472421940000000120e+02,-1.537976600000000076e+02,-3.152399902680411969e+02
-1.472421940000000120e+02,-1.537976600000000076e+02,-3.139899903092783120e+02
-1.475644594999999981e+02,-1.537976600000000076e+02,-3.083649904948453582e+02
-1.472421940000000120e+02,-1.541199254999999937e+02,-3.083649904948453582e+02
-1.472421940000000120e+02,-1.537976600000000076e+02,-3.089899904742267722e+02
-1.472421940000000120e+02,-1.531531290000000070e+02,-3.177399901855669668e+02
-1.472421940000000120e+02,-1.531531290000000070e+02,-3.152399902680411969e+02
-1.472421940000000120e+02,-1.531531290000000070e+02,-3.139899903092783120e+02
-1.475644594999999981e+02,-1.531531290000000070e+02,-3.083649904948453582e+02
-1.472421940000000120e+02,-1.531531290000000070e+02,-3.089899904742267722e+02
-1.472421940000000120e+02,-1.525085980000000063e+02,-3.177399901855669668e+02
-1.472421940000000120e+02,-1.525085980000000063e+02,-3.152399902680411969e+02
-1.472421940000000120e+02,-1.525085980000000063e+02,-3.139899903092783120e+02
-1.475644594999999981e+02,-1.525085980000000063e+02,-3.083649904948453582e+02
-1.472421940000000120e+02,-1.525085980000000063e+02,-3.089899904742267722e+02
-1.472421940000000120e+02,-1.518640670000000057e+02,-3.177399901855669668e+02
-1.472421940000000120e+02,-1.521863324999999918e+02,-3.158649902474226678e+02
-1.472421940000000120e+02,-1.518640670000000057e+02,-3.164899902268040819e+02
-1.472421940000000120e+02,-1.518640670000000057e+02,-3.139899903092783120e+02
-1.475644594999999981e+02,-1.518640670000000057e+02,-3.083649904948453582e+02
-1.472421940000000120e+02,-1.518640670000000057e+02,-3.089899904742267722e+02
-1.475644594999999981e+02,-1.512195360000000051e+02,-3.221149900412370926e+02
-1.472421940000000120e+02,-1.512195360000000051e+02,-3.227399900206185066e+02
-1.472421940000000120e+02,-1.515418014999999912e+02,-3.221149900412370926e+02
-1.472421940000000120e+02,-1.512195360000000051e+02,-3.214899900618556217e+02
-1.475644594999999981e+02,-1.512195360000000051e+02,-3.183649901649484377e+02
-1.472421940000000120e+02,-1.512195360000000051e+02,-3.189899901443298518e+02
-1.472421940000000120e+02,-1.515418014999999912e+02,-3.183649901649484377e+02
-1.472421940000000120e+02,-1.512195360000000051e+02,-3.164899902268040819e+02
-1.472421940000000120e+02,-1.512195360000000051e+02,-3.139899903092783120e+02
-1.475644594999999981e+02,-1.512195360000000051e+02,-3.083649904948453582e+02
-1.472421940000000120e+02,-1.512195360000000051e+02,-3.089899904742267722e+02
-1.472421940000000120e+02,-1.505750050000000044e+02,-3.227399900206185066e+02
-1.472421940000000120e+02,-1.508972704999999905e+02,-3.208649900824742076e+02
-1.472421940000000120e+02,-1.505750050000000044e+02,-3.202399901030927367e+02
-1.472421940000000120e+02,-1.505750050000000044e+02,-3.189899901443298518e+02
-1.472421940000000120e+02,-1.505750050000000044e+02,-3.164899902268040819e+02
-1.472421940000000120e+02,-1.505750050000000044e+02,-3.139899903092783120e+02
-1.475644594999999981e+02,-1.505750050000000044e+02,-3.096149904536082431e+02
-1.472421940000000120e+02,-1.508972704999999905e+02,-3.096149904536082431e+02
-1.472421940000000120e+02,-1.505750050000000044e+02,-3.102399904329896572e+02
-1.475644594999999981e+02,-1.505750050000000044e+02,-3.083649904948453582e+02
-1.472421940000000120e+02,-1.499304740000000038e+02,-3.227399900206185066e+02
-1.475644594999999981e+02,-1.499304740000000038e+02,-3.196149901237113227e+02
-1.472421940000000120e+02,-1.499304740000000038e+02,-3.202399901030927367e+02
-1.472421940000000120e+02,-1.499304740000000038e+02,-3.189899901443298518e+02
-1.472421940000000120e+02,-1.499304740000000038e+02,-3.164899902268040819e+02
-1.472421940000000120e+02,-1.499304740000000038e+02,-3.139899903092783120e+02
-1.475644594999999981e+02,-1.499304740000000038e+02,-3.096149904536082431e+02
-1.472421940000000120e+02,-1.499304740000000038e+02,-3.102399904329896572e+02
-1.475644594999999981e+02,-1.499304740000000038e+02,-3.083649904948453582e+02
-1.472421940000000120e+02,-1.492859430000000032e+02,-3.227399900206185066e+02
-1.472421940000000120e+02,-1.496082084999999893e+02,-3.196149901237113227e+02
-1.472421940000000120e+02,-1.492859430000000032e+02,-3.164899902268040819e+02
-1.472421940000000120e+02,-1.492859430000000032e+02,-3.139899903092783120e+02
-1.475644594999999981e+02,-1.492859430000000032e+02,-3.096149904536082431e+02
-1.472421940000000120e+02,-1.492859430000000032e+02,-3.102399904329896572e+02
-1.475644594999999981e+02,-1.492859430000000032e+02,-3.083649904948453582e+02
-1.472421940000000120e+02,-1.489636774999999886e+02,-3.221149900412370926e+02
-1.472421940000000120e+02,-1.486414120000000025e+02,-3.214899900618556217e+02
-1.472421940000000120e+02,-1.486414120000000025e+02,-3.164899902268040819e+02
-1.472421940000000120e+02,-1.486414120000000025e+02,-3.139899903092783120e+02
-1.475644594999999981e+02,-1.486414120000000025e+02,-3.096149904536082431e+02
-1.472421940000000120e+02,-1.486414120000000025e+02,-3.102399904329896572e+02
-1.475644594999999981e+02,-1.486414120000000025e+02,-3.083649904948453582e+02
-1.472421940000000120e+02,-1.479968810000000019e+02,-3.214899900618556217e+02
-1.472421940000000120e+02,-1.483191464999999880e+02,-3.183649901649484377e+02
-1.472421940000000120e+02,-1.479968810000000019e+02,-3.189899901443298518e+02
-1.472421940000000120e+02,-1.479968810000000019e+02,-3.177399901855669668e+02
-1.472421940000000120e+02,-1.479968810000000019e+02,-3.164899902268040819e+02
-1.472421940000000120e+02,-1.479968810000000019e+02,-3.139899903092783120e+02
-1.472421940000000120e+02,-1.483191464999999880e+02,-3.096149904536082431e+02
-1.472421940000000120e+02,-1.479968810000000019e+02,-3.089899904742267722e+02
-1.472421940000000120e+02,-1.476746154999999874e+02,-3.208649900824742076e+02
-1.472421940000000120e+02,-1.476746154999999874e+02,-3.196149901237113227e+02
-1.472421940000000120e+02,-1.473523500000000013e+02,-3.177399901855669668e+02
-1.475644594999999981e+02,-1.473523500000000013e+02,-3.158649902474226678e+02
-1.472421940000000120e+02,-1.473523500000000013e+02,-3.164899902268040819e+02
-1.472421940000000120e+02,-1.473523500000000013e+02,-3.139899903092783120e+02
-1.472421940000000120e+02,-1.473523500000000013e+02,-3.089899904742267722e+02
-1.472421940000000120e+02,-1.470300844999999867e+02,-3.171149902061855528e+02
-1.475644594999999981e+02,-1.467078190000000006e+02,-3.158649902474226678e+02
-1.472421940000000120e+02,-1.467078190000000006e+02,-3.139899903092783120e+02
-1.472421940000000120e+02,-1.467078190000000006e+02,-3.089899904742267722e+02
-1.472421940000000120e+02,-1.460632880000000000e+02,-3.139899903092783120e+02
-1.472421940000000120e+02,-1.460632880000000000e+02,-3.089899904742267722e+02
-1.472421940000000120e+02,-1.454187569999999994e+02,-3.139899903092783120e+02
-1.472421940000000120e+02,-1.454187569999999994e+02,-3.089899904742267722e+02
-1.472421940000000120e+02,-1.447742259999999987e+02,-3.139899903092783120e+02
-1.472421940000000120e+02,-1.447742259999999987e+02,-3.089899904742267722e+02
-1.472421940000000120e+02,-1.441296949999999981e+02,-3.139899903092783120e+02
-1.472421940000000120e+02,-1.441296949999999981e+02,-3.089899904742267722e+02
-1.472421940000000120e+02,-1.434851639999999975e+02,-3.139899903092783120e+02
-1.472421940000000120e+02,-1.434851639999999975e+02,-3.089899904742267722e+02
-1.472421940000000120e+02,-1.428406329999999969e+02,-3.139899903092783120e+02
-1.472421940000000120e+02,-1.431628984999999830e+02,-3.096149904536082431e+02
-1.472421940000000120e+02,-1.428406329999999969e+02,-3.102399904329896572e+02
-1.472421940000000120e+02,-1.421961019999999962e+02,-3.139899903092783120e+02
-1.472421940000000120e+02,-1.425183675000000108e+02,-3.108649904123711281e+02
-1.472421940000000120e+02,-1.421961019999999962e+02,-3.114899903917525421e+02
-1.472421940000000120e+02,-1.418738365000000101e+02,-3.133649903298968979e+02
-1.475644594999999981e+02,-1.415515709999999956e+02,-3.133649903298968979e+02
-1.472421940000000120e+02,-1.415515709999999956e+02,-3.127399903505154271e+02
-1.472421940000000120e+02,-1.415515709999999956e+02,-3.114899903917525421e+02
-1.475644594999999981e+02,-1.409070399999999950e+02,-3.133649903298968979e+02
-1.472421940000000120e+02,-1.412293055000000095e+02,-3.121149903711340130e+02
-1.475644594999999981e+02,-1.402625089999999943e+02,-3.133649903298968979e+02
-1.475644594999999981e+02,-1.396179779999999937e+02,-3.133649903298968979e+02
-1.469199284999999975e+02,-1.660437489999999912e+02,-3.183649901649484377e+02
-1.465976630000000114e+02,-1.653992179999999905e+02,-3.189899901443298518e+02
-1.465976630000000114e+02,-1.657214835000000051e+02,-3.183649901649484377e+02
-1.465976630000000114e+02,-1.653992179999999905e+02,-3.177399901855669668e+02
-1.465976630000000114e+02,-1.647546869999999899e+02,-3.189899901443298518e+02
-1.465976630000000114e+02,-1.647546869999999899e+02,-3.177399901855669668e+02
-1.465976630000000114e+02,-1.641101559999999893e+02,-3.189899901443298518e+02
-1.465976630000000114e+02,-1.641101559999999893e+02,-3.177399901855669668e+02
-1.465976630000000114e+02,-1.641101559999999893e+02,-3.127399903505154271e+02
-1.465976630000000114e+02,-1.644324215000000038e+02,-3.121149903711340130e+02
-1.465976630000000114e+02,-1.641101559999999893e+02,-3.114899903917525421e+02
-1.465976630000000114e+02,-1.634656249999999886e+02,-3.202399901030927367e+02
-1.465976630000000114e+02,-1.637878905000000032e+02,-3.196149901237113227e+02
-1.465976630000000114e+02,-1.634656249999999886e+02,-3.177399901855669668e+02
-1.465976630000000114e+02,-1.634656249999999886e+02,-3.127399903505154271e+02
-1.465976630000000114e+02,-1.634656249999999886e+02,-3.114899903917525421e+02
-1.465976630000000114e+02,-1.628210939999999880e+02,-3.202399901030927367e+02
-1.469199284999999975e+02,-1.628210939999999880e+02,-3.171149902061855528e+02
-1.465976630000000114e+02,-1.628210939999999880e+02,-3.177399901855669668e+02
-1.465976630000000114e+02,-1.628210939999999880e+02,-3.127399903505154271e+02
-1.465976630000000114e+02,-1.628210939999999880e+02,-3.114899903917525421e+02
-1.465976630000000114e+02,-1.621765629999999874e+02,-3.202399901030927367e+02
-1.465976630000000114e+02,-1.624988285000000019e+02,-3.171149902061855528e+02
-1.465976630000000114e+02,-1.621765629999999874e+02,-3.164899902268040819e+02
-1.465976630000000114e+02,-1.621765629999999874e+02,-3.127399903505154271e+02
