-2.256449290000000190e+02,-2.328953129999999874e+02,-3.362500000000000000e+02
-2.252054760000000044e+02,-2.328953129999999874e+02,-3.356250000000000000e+02
-2.252054760000000044e+02,-2.333347660000000019e+02,-3.350000000000000000e+02
-2.256449290000000190e+02,-2.320164069999999867e+02,-3.387500000000000000e+02
-2.252054760000000044e+02,-2.320164069999999867e+02,-3.393750000000000000e+02
-2.252054760000000044e+02,-2.324558600000000013e+02,-3.387500000000000000e+02
-2.256449290000000190e+02,-2.320164069999999867e+02,-3.375000000000000000e+02
-2.256449290000000190e+02,-2.320164069999999867e+02,-3.362500000000000000e+02
-2.252054760000000044e+02,-2.320164069999999867e+02,-3.356250000000000000e+02
-2.256449290000000190e+02,-2.311375009999999861e+02,-3.387500000000000000e+02
-2.252054760000000044e+02,-2.311375009999999861e+02,-3.393750000000000000e+02
-2.256449290000000190e+02,-2.311375009999999861e+02,-3.375000000000000000e+02
-2.256449290000000190e+02,-2.311375009999999861e+02,-3.362500000000000000e+02
-2.252054760000000044e+02,-2.311375009999999861e+02,-3.356250000000000000e+02
-2.256449290000000190e+02,-2.302585949999999855e+02,-3.387500000000000000e+02
-2.252054760000000044e+02,-2.302585949999999855e+02,-3.393750000000000000e+02
-2.256449290000000190e+02,-2.302585949999999855e+02,-3.375000000000000000e+02
-2.252054760000000044e+02,-2.302585949999999855e+02,-3.368750000000000000e+02
-2.252054760000000044e+02,-2.306980480000000000e+02,-3.362500000000000000e+02
-2.252054760000000044e+02,-2.293796889999999848e+02,-3.431250000000000000e+02
-2.252054760000000044e+02,-2.298191419999999994e+02,-3.425000000000000000e+02
-2.252054760000000044e+02,-2.293796889999999848e+02,-3.418750000000000000e+02
-2.256449290000000190e+02,-2.293796889999999848e+02,-3.387500000000000000e+02
-2.252054760000000044e+02,-2.293796889999999848e+02,-3.393750000000000000e+02
-2.252054760000000044e+02,-2.293796889999999848e+02,-3.368750000000000000e+02
-2.256449290000000190e+02,-2.285007830000000126e+02,-3.450000000000000000e+02
-2.252054760000000044e+02,-2.289402359999999987e+02,-3.437500000000000000e+02
-2.256449290000000190e+02,-2.285007830000000126e+02,-3.437500000000000000e+02
-2.252054760000000044e+02,-2.289402359999999987e+02,-3.450000000000000000e+02
-2.252054760000000044e+02,-2.289402359999999987e+02,-3.412500000000000000e+02
-2.256449290000000190e+02,-2.285007830000000126e+02,-3.412500000000000000e+02
-2.252054760000000044e+02,-2.289402359999999987e+02,-3.400000000000000000e+02
-2.256449290000000190e+02,-2.285007830000000126e+02,-3.400000000000000000e+02
-2.256449290000000190e+02,-2.285007830000000126e+02,-3.387500000000000000e+02
-2.256449290000000190e+02,-2.285007830000000126e+02,-3.375000000000000000e+02
-2.252054760000000044e+02,-2.289402359999999987e+02,-3.362500000000000000e+02
-2.256449290000000190e+02,-2.285007830000000126e+02,-3.362500000000000000e+02
-2.252054760000000044e+02,-2.289402359999999987e+02,-3.350000000000000000e+02
-2.256449290000000190e+02,-2.285007830000000126e+02,-3.350000000000000000e+02
-2.252054760000000044e+02,-2.285007830000000126e+02,-3.343750000000000000e+02
-2.256449290000000190e+02,-2.276218769999999836e+02,-3.437500000000000000e+02
-2.256449290000000190e+02,-2.276218769999999836e+02,-3.450000000000000000e+02
-2.256449290000000190e+02,-2.276218769999999836e+02,-3.412500000000000000e+02
-2.256449290000000190e+02,-2.276218769999999836e+02,-3.387500000000000000e+02
-2.256449290000000190e+02,-2.276218769999999836e+02,-3.375000000000000000e+02
-2.256449290000000190e+02,-2.276218769999999836e+02,-3.362500000000000000e+02
-2.256449290000000190e+02,-2.276218769999999836e+02,-3.350000000000000000e+02
-2.252054760000000044e+02,-2.280613299999999981e+02,-3.337500000000000000e+02
-2.256449290000000190e+02,-2.276218769999999836e+02,-3.337500000000000000e+02
-2.252054760000000044e+02,-2.276218769999999836e+02,-3.331250000000000000e+02
-2.252054760000000044e+02,-2.271824239999999975e+02,-3.450000000000000000e+02
-2.256449290000000190e+02,-2.267429710000000114e+02,-3.437500000000000000e+02
-2.252054760000000044e+02,-2.267429710000000114e+02,-3.443750000000000000e+02
-2.256449290000000190e+02,-2.267429710000000114e+02,-3.412500000000000000e+02
-2.252054760000000044e+02,-2.271824239999999975e+02,-3.387500000000000000e+02
-2.252054760000000044e+02,-2.267429710000000114e+02,-3.393750000000000000e+02
-2.252054760000000044e+02,-2.271824239999999975e+02,-3.375000000000000000e+02
-2.252054760000000044e+02,-2.267429710000000114e+02,-3.368750000000000000e+02
-2.256449290000000190e+02,-2.267429710000000114e+02,-3.350000000000000000e+02
-2.252054760000000044e+02,-2.267429710000000114e+02,-3.343750000000000000e+02
-2.252054760000000044e+02,-2.271824239999999975e+02,-3.337500000000000000e+02
-2.252054760000000044e+02,-2.263035179999999968e+02,-3.437500000000000000e+02
-2.256449290000000190e+02,-2.258640649999999823e+02,-3.425000000000000000e+02
-2.252054760000000044e+02,-2.258640649999999823e+02,-3.431250000000000000e+02
-2.256449290000000190e+02,-2.258640649999999823e+02,-3.412500000000000000e+02
-2.252054760000000044e+02,-2.258640649999999823e+02,-3.393750000000000000e+02
-2.256449290000000190e+02,-2.258640649999999823e+02,-3.362500000000000000e+02
-2.252054760000000044e+02,-2.258640649999999823e+02,-3.368750000000000000e+02
-2.252054760000000044e+02,-2.258640649999999823e+02,-3.356250000000000000e+02
-2.252054760000000044e+02,-2.263035179999999968e+02,-3.350000000000000000e+02
-2.252054760000000044e+02,-2.254246119999999962e+02,-3.425000000000000000e+02
-2.252054760000000044e+02,-2.254246119999999962e+02,-3.412500000000000000e+02
-2.252054760000000044e+02,-2.249851590000000101e+02,-3.406250000000000000e+02
-2.252054760000000044e+02,-2.249851590000000101e+02,-3.393750000000000000e+02
-2.252054760000000044e+02,-2.254246119999999962e+02,-3.362500000000000000e+02
-2.252054760000000044e+02,-2.241062529999999811e+02,-3.406250000000000000e+02
-2.252054760000000044e+02,-2.241062529999999811e+02,-3.393750000000000000e+02
-2.252054760000000044e+02,-2.236667999999999950e+02,-3.400000000000000000e+02
-2.243265700000000038e+02,-2.372898429999999905e+02,-3.381250000000000000e+02
-2.243265700000000038e+02,-2.377292960000000051e+02,-3.375000000000000000e+02
-2.247660230000000183e+02,-2.372898429999999905e+02,-3.362500000000000000e+02
-2.243265700000000038e+02,-2.372898429999999905e+02,-3.368750000000000000e+02
-2.247660230000000183e+02,-2.364109369999999899e+02,-3.375000000000000000e+02
-2.243265700000000038e+02,-2.364109369999999899e+02,-3.381250000000000000e+02
-2.243265700000000038e+02,-2.368503900000000044e+02,-3.362500000000000000e+02
-2.247660230000000183e+02,-2.364109369999999899e+02,-3.350000000000000000e+02
-2.243265700000000038e+02,-2.364109369999999899e+02,-3.356250000000000000e+02
-2.247660230000000183e+02,-2.355320309999999893e+02,-3.387500000000000000e+02
-2.243265700000000038e+02,-2.355320309999999893e+02,-3.393750000000000000e+02
-2.243265700000000038e+02,-2.359714840000000038e+02,-3.387500000000000000e+02
-2.247660230000000183e+02,-2.355320309999999893e+02,-3.375000000000000000e+02
-2.243265700000000038e+02,-2.359714840000000038e+02,-3.350000000000000000e+02
-2.243265700000000038e+02,-2.355320309999999893e+02,-3.343750000000000000e+02
-2.247660230000000183e+02,-2.346531249999999886e+02,-3.387500000000000000e+02
-2.243265700000000038e+02,-2.346531249999999886e+02,-3.393750000000000000e+02
-2.247660230000000183e+02,-2.346531249999999886e+02,-3.375000000000000000e+02
-2.243265700000000038e+02,-2.346531249999999886e+02,-3.343750000000000000e+02
-2.247660230000000183e+02,-2.337742189999999880e+02,-3.387500000000000000e+02
-2.243265700000000038e+02,-2.337742189999999880e+02,-3.393750000000000000e+02
-2.247660230000000183e+02,-2.337742189999999880e+02,-3.375000000000000000e+02
-2.243265700000000038e+02,-2.337742189999999880e+02,-3.343750000000000000e+02
-2.247660230000000183e+02,-2.328953129999999874e+02,-3.387500000000000000e+02
-2.243265700000000038e+02,-2.328953129999999874e+02,-3.393750000000000000e+02
-2.247660230000000183e+02,-2.328953129999999874e+02,-3.350000000000000000e+02
-2.243265700000000038e+02,-2.328953129999999874e+02,-3.343750000000000000e+02
-2.243265700000000038e+02,-2.320164069999999867e+02,-3.393750000000000000e+02
-2.247660230000000183e+02,-2.320164069999999867e+02,-3.350000000000000000e+02
-2.243265700000000038e+02,-2.320164069999999867e+02,-3.343750000000000000e+02
-2.243265700000000038e+02,-2.311375009999999861e+02,-3.393750000000000000e+02
-2.247660230000000183e+02,-2.311375009999999861e+02,-3.350000000000000000e+02
-2.243265700000000038e+02,-2.311375009999999861e+02,-3.343750000000000000e+02
-2.247660230000000183e+02,-2.302585949999999855e+02,-3.425000000000000000e+02
-2.243265700000000038e+02,-2.302585949999999855e+02,-3.431250000000000000e+02
-2.243265700000000038e+02,-2.306980480000000000e+02,-3.425000000000000000e+02
-2.243265700000000038e+02,-2.302585949999999855e+02,-3.418750000000000000e+02
-2.243265700000000038e+02,-2.302585949999999855e+02,-3.393750000000000000e+02
-2.247660230000000183e+02,-2.302585949999999855e+02,-3.362500000000000000e+02
-2.247660230000000183e+02,-2.302585949999999855e+02,-3.350000000000000000e+02
-2.243265700000000038e+02,-2.302585949999999855e+02,-3.343750000000000000e+02
-2.247660230000000183e+02,-2.293796889999999848e+02,-3.437500000000000000e+02
-2.243265700000000038e+02,-2.293796889999999848e+02,-3.443750000000000000e+02
-2.243265700000000038e+02,-2.298191419999999994e+02,-3.437500000000000000e+02
-2.243265700000000038e+02,-2.293796889999999848e+02,-3.418750000000000000e+02
-2.243265700000000038e+02,-2.293796889999999848e+02,-3.393750000000000000e+02
-2.247660230000000183e+02,-2.293796889999999848e+02,-3.362500000000000000e+02
-2.247660230000000183e+02,-2.293796889999999848e+02,-3.350000000000000000e+02
-2.243265700000000038e+02,-2.298191419999999994e+02,-3.337500000000000000e+02
-2.247660230000000183e+02,-2.293796889999999848e+02,-3.337500000000000000e+02
-2.243265700000000038e+02,-2.293796889999999848e+02,-3.331250000000000000e+02
-2.243265700000000038e+02,-2.289402359999999987e+02,-3.450000000000000000e+02
-2.243265700000000038e+02,-2.289402359999999987e+02,-3.412500000000000000e+02
-2.243265700000000038e+02,-2.289402359999999987e+02,-3.400000000000000000e+02
-2.247660230000000183e+02,-2.285007830000000126e+02,-3.337500000000000000e+02
-2.243265700000000038e+02,-2.285007830000000126e+02,-3.331250000000000000e+02
-2.243265700000000038e+02,-2.276218769999999836e+02,-3.331250000000000000e+02
-2.247660230000000183e+02,-2.267429710000000114e+02,-3.450000000000000000e+02
-2.247660230000000183e+02,-2.267429710000000114e+02,-3.387500000000000000e+02
-2.247660230000000183e+02,-2.267429710000000114e+02,-3.375000000000000000e+02
-2.247660230000000183e+02,-2.267429710000000114e+02,-3.337500000000000000e+02
-2.243265700000000038e+02,-2.267429710000000114e+02,-3.331250000000000000e+02
-2.247660230000000183e+02,-2.258640649999999823e+02,-3.437500000000000000e+02
-2.247660230000000183e+02,-2.258640649999999823e+02,-3.450000000000000000e+02
-2.247660230000000183e+02,-2.258640649999999823e+02,-3.387500000000000000e+02
-2.243265700000000038e+02,-2.258640649999999823e+02,-3.381250000000000000e+02
-2.243265700000000038e+02,-2.263035179999999968e+02,-3.375000000000000000e+02
-2.243265700000000038e+02,-2.258640649999999823e+02,-3.368750000000000000e+02
-2.247660230000000183e+02,-2.258640649999999823e+02,-3.350000000000000000e+02
-2.243265700000000038e+02,-2.258640649999999823e+02,-3.343750000000000000e+02
-2.243265700000000038e+02,-2.263035179999999968e+02,-3.337500000000000000e+02
-2.243265700000000038e+02,-2.254246119999999962e+02,-3.450000000000000000e+02
-2.243265700000000038e+02,-2.254246119999999962e+02,-3.437500000000000000e+02
-2.247660230000000183e+02,-2.249851590000000101e+02,-3.425000000000000000e+02
-2.243265700000000038e+02,-2.249851590000000101e+02,-3.431250000000000000e+02
-2.247660230000000183e+02,-2.249851590000000101e+02,-3.412500000000000000e+02
-2.243265700000000038e+02,-2.254246119999999962e+02,-3.387500000000000000e+02
-2.243265700000000038e+02,-2.249851590000000101e+02,-3.393750000000000000e+02
-2.247660230000000183e+02,-2.249851590000000101e+02,-3.362500000000000000e+02
-2.243265700000000038e+02,-2.249851590000000101e+02,-3.368750000000000000e+02
-2.243265700000000038e+02,-2.249851590000000101e+02,-3.356250000000000000e+02
-2.243265700000000038e+02,-2.254246119999999962e+02,-3.350000000000000000e+02
-2.247660230000000183e+02,-2.241062529999999811e+02,-3.425000000000000000e+02
-2.243265700000000038e+02,-2.241062529999999811e+02,-3.431250000000000000e+02
-2.247660230000000183e+02,-2.241062529999999811e+02,-3.412500000000000000e+02
-2.243265700000000038e+02,-2.241062529999999811e+02,-3.393750000000000000e+02
-2.243265700000000038e+02,-2.245457059999999956e+02,-3.362500000000000000e+02
-2.243265700000000038e+02,-2.236667999999999950e+02,-3.425000000000000000e+02
-2.243265700000000038e+02,-2.236667999999999950e+02,-3.412500000000000000e+02
-2.243265700000000038e+02,-2.236667999999999950e+02,-3.400000000000000000e+02
-2.238871170000000177e+02,-2.372898429999999905e+02,-3.387500000000000000e+02
-2.234476640000000032e+02,-2.372898429999999905e+02,-3.393750000000000000e+02
-2.234476640000000032e+02,-2.377292960000000051e+02,-3.387500000000000000e+02
-2.234476640000000032e+02,-2.377292960000000051e+02,-3.375000000000000000e+02
-2.234476640000000032e+02,-2.372898429999999905e+02,-3.368750000000000000e+02
-2.238871170000000177e+02,-2.364109369999999899e+02,-3.387500000000000000e+02
-2.234476640000000032e+02,-2.364109369999999899e+02,-3.393750000000000000e+02
-2.238871170000000177e+02,-2.364109369999999899e+02,-3.362500000000000000e+02
-2.234476640000000032e+02,-2.364109369999999899e+02,-3.368750000000000000e+02
-2.234476640000000032e+02,-2.355320309999999893e+02,-3.393750000000000000e+02
-2.234476640000000032e+02,-2.359714840000000038e+02,-3.362500000000000000e+02
-2.238871170000000177e+02,-2.355320309999999893e+02,-3.350000000000000000e+02
-2.234476640000000032e+02,-2.355320309999999893e+02,-3.356250000000000000e+02
-2.234476640000000032e+02,-2.346531249999999886e+02,-3.393750000000000000e+02
-2.234476640000000032e+02,-2.350925780000000032e+02,-3.350000000000000000e+02
-2.234476640000000032e+02,-2.346531249999999886e+02,-3.343750000000000000e+02
-2.234476640000000032e+02,-2.337742189999999880e+02,-3.393750000000000000e+02
-2.234476640000000032e+02,-2.337742189999999880e+02,-3.343750000000000000e+02
-2.234476640000000032e+02,-2.328953129999999874e+02,-3.393750000000000000e+02
-2.234476640000000032e+02,-2.328953129999999874e+02,-3.343750000000000000e+02
-2.234476640000000032e+02,-2.320164069999999867e+02,-3.393750000000000000e+02
-2.234476640000000032e+02,-2.320164069999999867e+02,-3.343750000000000000e+02
-2.234476640000000032e+02,-2.311375009999999861e+02,-3.393750000000000000e+02
-2.234476640000000032e+02,-2.315769540000000006e+02,-3.337500000000000000e+02
-2.238871170000000177e+02,-2.311375009999999861e+02,-3.337500000000000000e+02
-2.234476640000000032e+02,-2.311375009999999861e+02,-3.331250000000000000e+02
-2.238871170000000177e+02,-2.302585949999999855e+02,-3.437500000000000000e+02
-2.234476640000000032e+02,-2.302585949999999855e+02,-3.443750000000000000e+02
-2.234476640000000032e+02,-2.306980480000000000e+02,-3.437500000000000000e+02
-2.234476640000000032e+02,-2.306980480000000000e+02,-3.425000000000000000e+02
-2.234476640000000032e+02,-2.302585949999999855e+02,-3.418750000000000000e+02
-2.234476640000000032e+02,-2.302585949999999855e+02,-3.393750000000000000e+02
-2.238871170000000177e+02,-2.302585949999999855e+02,-3.337500000000000000e+02
-2.234476640000000032e+02,-2.302585949999999855e+02,-3.331250000000000000e+02
-2.238871170000000177e+02,-2.293796889999999848e+02,-3.450000000000000000e+02
-2.234476640000000032e+02,-2.298191419999999994e+02,-3.450000000000000000e+02
-2.234476640000000032e+02,-2.298191419999999994e+02,-3.412500000000000000e+02
-2.238871170000000177e+02,-2.293796889999999848e+02,-3.412500000000000000e+02
-2.234476640000000032e+02,-2.298191419999999994e+02,-3.400000000000000000e+02
-2.238871170000000177e+02,-2.293796889999999848e+02,-3.400000000000000000e+02
-2.234476640000000032e+02,-2.293796889999999848e+02,-3.331250000000000000e+02
-2.234476640000000032e+02,-2.285007830000000126e+02,-3.331250000000000000e+02
-2.234476640000000032e+02,-2.276218769999999836e+02,-3.331250000000000000e+02
-2.234476640000000032e+02,-2.267429710000000114e+02,-3.331250000000000000e+02
-2.238871170000000177e+02,-2.258640649999999823e+02,-3.375000000000000000e+02
-2.238871170000000177e+02,-2.258640649999999823e+02,-3.337500000000000000e+02
-2.234476640000000032e+02,-2.258640649999999823e+02,-3.331250000000000000e+02
-2.234476640000000032e+02,-2.254246119999999962e+02,-3.437500000000000000e+02
-2.234476640000000032e+02,-2.254246119999999962e+02,-3.450000000000000000e+02
-2.234476640000000032e+02,-2.249851590000000101e+02,-3.431250000000000000e+02
-2.238871170000000177e+02,-2.249851590000000101e+02,-3.387500000000000000e+02
-2.238871170000000177e+02,-2.249851590000000101e+02,-3.375000000000000000e+02
-2.238871170000000177e+02,-2.249851590000000101e+02,-3.350000000000000000e+02
-2.234476640000000032e+02,-2.249851590000000101e+02,-3.343750000000000000e+02
-2.234476640000000032e+02,-2.254246119999999962e+02,-3.337500000000000000e+02
-2.234476640000000032e+02,-2.241062529999999811e+02,-3.431250000000000000e+02
-2.238871170000000177e+02,-2.241062529999999811e+02,-3.387500000000000000e+02
-2.234476640000000032e+02,-2.241062529999999811e+02,-3.381250000000000000e+02
-2.234476640000000032e+02,-2.245457059999999956e+02,-3.375000000000000000e+02
-2.234476640000000032e+02,-2.245457059999999956e+02,-3.362500000000000000e+02
-2.234476640000000032e+02,-2.245457059999999956e+02,-3.350000000000000000e+02
-2.238871170000000177e+02,-2.232273470000000088e+02,-3.425000000000000000e+02
-2.234476640000000032e+02,-2.232273470000000088e+02,-3.431250000000000000e+02
-2.234476640000000032e+02,-2.232273470000000088e+02,-3.418750000000000000e+02
-2.234476640000000032e+02,-2.236667999999999950e+02,-3.412500000000000000e+02
-2.234476640000000032e+02,-2.236667999999999950e+02,-3.400000000000000000e+02
-2.234476640000000032e+02,-2.236667999999999950e+02,-3.387500000000000000e+02
-2.234476640000000032e+02,-2.227878939999999943e+02,-3.425000000000000000e+02
-2.230082110000000171e+02,-2.381687489999999912e+02,-3.387500000000000000e+02
-2.225687580000000025e+02,-2.381687489999999912e+02,-3.393750000000000000e+02
-2.225687580000000025e+02,-2.386082020000000057e+02,-3.387500000000000000e+02
-2.225687580000000025e+02,-2.381687489999999912e+02,-3.381250000000000000e+02
-2.225687580000000025e+02,-2.372898429999999905e+02,-3.393750000000000000e+02
-2.225687580000000025e+02,-2.377292960000000051e+02,-3.375000000000000000e+02
-2.225687580000000025e+02,-2.372898429999999905e+02,-3.368750000000000000e+02
-2.225687580000000025e+02,-2.364109369999999899e+02,-3.393750000000000000e+02
-2.225687580000000025e+02,-2.364109369999999899e+02,-3.368750000000000000e+02
-2.225687580000000025e+02,-2.355320309999999893e+02,-3.393750000000000000e+02
-2.225687580000000025e+02,-2.359714840000000038e+02,-3.362500000000000000e+02
-2.225687580000000025e+02,-2.355320309999999893e+02,-3.356250000000000000e+02
-2.225687580000000025e+02,-2.346531249999999886e+02,-3.393750000000000000e+02
-2.225687580000000025e+02,-2.350925780000000032e+02,-3.350000000000000000e+02
-2.225687580000000025e+02,-2.346531249999999886e+02,-3.343750000000000000e+02
-2.225687580000000025e+02,-2.337742189999999880e+02,-3.393750000000000000e+02
-2.225687580000000025e+02,-2.337742189999999880e+02,-3.343750000000000000e+02
-2.225687580000000025e+02,-2.328953129999999874e+02,-3.393750000000000000e+02
-2.225687580000000025e+02,-2.328953129999999874e+02,-3.343750000000000000e+02
-2.225687580000000025e+02,-2.320164069999999867e+02,-3.393750000000000000e+02
-2.225687580000000025e+02,-2.324558600000000013e+02,-3.337500000000000000e+02
-2.230082110000000171e+02,-2.320164069999999867e+02,-3.337500000000000000e+02
-2.225687580000000025e+02,-2.320164069999999867e+02,-3.331250000000000000e+02
-2.230082110000000171e+02,-2.311375009999999861e+02,-3.437500000000000000e+02
-2.225687580000000025e+02,-2.311375009999999861e+02,-3.443750000000000000e+02
-2.225687580000000025e+02,-2.315769540000000006e+02,-3.437500000000000000e+02
-2.225687580000000025e+02,-2.315769540000000006e+02,-3.425000000000000000e+02
-2.230082110000000171e+02,-2.311375009999999861e+02,-3.425000000000000000e+02
-2.225687580000000025e+02,-2.311375009999999861e+02,-3.418750000000000000e+02
-2.225687580000000025e+02,-2.311375009999999861e+02,-3.393750000000000000e+02
-2.225687580000000025e+02,-2.311375009999999861e+02,-3.331250000000000000e+02
-2.230082110000000171e+02,-2.302585949999999855e+02,-3.450000000000000000e+02
-2.225687580000000025e+02,-2.306980480000000000e+02,-3.450000000000000000e+02
-2.225687580000000025e+02,-2.306980480000000000e+02,-3.412500000000000000e+02
-2.230082110000000171e+02,-2.302585949999999855e+02,-3.412500000000000000e+02
-2.225687580000000025e+02,-2.306980480000000000e+02,-3.400000000000000000e+02
-2.230082110000000171e+02,-2.302585949999999855e+02,-3.400000000000000000e+02
-2.225687580000000025e+02,-2.302585949999999855e+02,-3.331250000000000000e+02
-2.225687580000000025e+02,-2.293796889999999848e+02,-3.331250000000000000e+02
-2.225687580000000025e+02,-2.285007830000000126e+02,-3.331250000000000000e+02
-2.225687580000000025e+02,-2.276218769999999836e+02,-3.331250000000000000e+02
-2.225687580000000025e+02,-2.271824239999999975e+02,-3.325000000000000000e+02
-2.230082110000000171e+02,-2.267429710000000114e+02,-3.325000000000000000e+02
-2.225687580000000025e+02,-2.267429710000000114e+02,-3.318750000000000000e+02
-2.225687580000000025e+02,-2.263035179999999968e+02,-3.450000000000000000e+02
-2.230082110000000171e+02,-2.258640649999999823e+02,-3.450000000000000000e+02
-2.225687580000000025e+02,-2.258640649999999823e+02,-3.443750000000000000e+02
-2.230082110000000171e+02,-2.258640649999999823e+02,-3.325000000000000000e+02
-2.225687580000000025e+02,-2.258640649999999823e+02,-3.318750000000000000e+02
-2.225687580000000025e+02,-2.254246119999999962e+02,-3.437500000000000000e+02
-2.225687580000000025e+02,-2.249851590000000101e+02,-3.431250000000000000e+02
-2.230082110000000171e+02,-2.249851590000000101e+02,-3.337500000000000000e+02
-2.225687580000000025e+02,-2.249851590000000101e+02,-3.331250000000000000e+02
-2.225687580000000025e+02,-2.254246119999999962e+02,-3.325000000000000000e+02
-2.225687580000000025e+02,-2.241062529999999811e+02,-3.431250000000000000e+02
-2.230082110000000171e+02,-2.241062529999999811e+02,-3.375000000000000000e+02
-2.230082110000000171e+02,-2.241062529999999811e+02,-3.362500000000000000e+02
-2.230082110000000171e+02,-2.241062529999999811e+02,-3.350000000000000000e+02
-2.225687580000000025e+02,-2.241062529999999811e+02,-3.343750000000000000e+02
-2.225687580000000025e+02,-2.245457059999999956e+02,-3.337500000000000000e+02
-2.225687580000000025e+02,-2.236667999999999950e+02,-3.425000000000000000e+02
-2.230082110000000171e+02,-2.232273470000000088e+02,-3.425000000000000000e+02
-2.230082110000000171e+02,-2.232273470000000088e+02,-3.412500000000000000e+02
-2.225687580000000025e+02,-2.232273470000000088e+02,-3.418750000000000000e+02
-2.225687580000000025e+02,-2.232273470000000088e+02,-3.406250000000000000e+02
-2.225687580000000025e+02,-2.236667999999999950e+02,-3.400000000000000000e+02
-2.225687580000000025e+02,-2.236667999999999950e+02,-3.387500000000000000e+02
-2.230082110000000171e+02,-2.232273470000000088e+02,-3.375000000000000000e+02
-2.225687580000000025e+02,-2.232273470000000088e+02,-3.381250000000000000e+02
-2.225687580000000025e+02,-2.232273470000000088e+02,-3.368750000000000000e+02
-2.225687580000000025e+02,-2.236667999999999950e+02,-3.362500000000000000e+02
-2.225687580000000025e+02,-2.236667999999999950e+02,-3.350000000000000000e+02
-2.225687580000000025e+02,-2.227878939999999943e+02,-3.412500000000000000e+02
-2.225687580000000025e+02,-2.227878939999999943e+02,-3.375000000000000000e+02
-2.221293050000000164e+02,-2.390476549999999918e+02,-3.387500000000000000e+02
-2.216898520000000019e+02,-2.390476549999999918e+02,-3.393750000000000000e+02
-2.216898520000000019e+02,-2.394871080000000063e+02,-3.387500000000000000e+02
-2.216898520000000019e+02,-2.390476549999999918e+02,-3.381250000000000000e+02
-2.216898520000000019e+02,-2.381687489999999912e+02,-3.393750000000000000e+02
-2.216898520000000019e+02,-2.381687489999999912e+02,-3.381250000000000000e+02
-2.216898520000000019e+02,-2.372898429999999905e+02,-3.393750000000000000e+02
-2.216898520000000019e+02,-2.377292960000000051e+02,-3.375000000000000000e+02
-2.216898520000000019e+02,-2.372898429999999905e+02,-3.368750000000000000e+02
-2.216898520000000019e+02,-2.364109369999999899e+02,-3.393750000000000000e+02
-2.216898520000000019e+02,-2.364109369999999899e+02,-3.368750000000000000e+02
-2.216898520000000019e+02,-2.355320309999999893e+02,-3.393750000000000000e+02
-2.216898520000000019e+02,-2.359714840000000038e+02,-3.362500000000000000e+02
-2.216898520000000019e+02,-2.355320309999999893e+02,-3.356250000000000000e+02
-2.216898520000000019e+02,-2.346531249999999886e+02,-3.393750000000000000e+02
-2.216898520000000019e+02,-2.350925780000000032e+02,-3.350000000000000000e+02
-2.216898520000000019e+02,-2.346531249999999886e+02,-3.343750000000000000e+02
-2.216898520000000019e+02,-2.337742189999999880e+02,-3.393750000000000000e+02
-2.216898520000000019e+02,-2.337742189999999880e+02,-3.343750000000000000e+02
-2.216898520000000019e+02,-2.328953129999999874e+02,-3.393750000000000000e+02
-2.216898520000000019e+02,-2.333347660000000019e+02,-3.337500000000000000e+02
-2.221293050000000164e+02,-2.328953129999999874e+02,-3.337500000000000000e+02
-2.216898520000000019e+02,-2.328953129999999874e+02,-3.331250000000000000e+02
-2.221293050000000164e+02,-2.320164069999999867e+02,-3.437500000000000000e+02
-2.216898520000000019e+02,-2.320164069999999867e+02,-3.443750000000000000e+02
-2.216898520000000019e+02,-2.324558600000000013e+02,-3.437500000000000000e+02
-2.216898520000000019e+02,-2.324558600000000013e+02,-3.425000000000000000e+02
-2.221293050000000164e+02,-2.320164069999999867e+02,-3.425000000000000000e+02
-2.216898520000000019e+02,-2.320164069999999867e+02,-3.418750000000000000e+02
-2.216898520000000019e+02,-2.320164069999999867e+02,-3.393750000000000000e+02
-2.216898520000000019e+02,-2.320164069999999867e+02,-3.331250000000000000e+02
-2.221293050000000164e+02,-2.311375009999999861e+02,-3.450000000000000000e+02
-2.216898520000000019e+02,-2.315769540000000006e+02,-3.450000000000000000e+02
-2.216898520000000019e+02,-2.315769540000000006e+02,-3.412500000000000000e+02
-2.221293050000000164e+02,-2.311375009999999861e+02,-3.412500000000000000e+02
-2.216898520000000019e+02,-2.315769540000000006e+02,-3.400000000000000000e+02
-2.221293050000000164e+02,-2.311375009999999861e+02,-3.400000000000000000e+02
-2.216898520000000019e+02,-2.311375009999999861e+02,-3.331250000000000000e+02
-2.216898520000000019e+02,-2.302585949999999855e+02,-3.331250000000000000e+02
-2.216898520000000019e+02,-2.293796889999999848e+02,-3.331250000000000000e+02
-2.216898520000000019e+02,-2.285007830000000126e+02,-3.331250000000000000e+02
-2.216898520000000019e+02,-2.276218769999999836e+02,-3.331250000000000000e+02
-2.216898520000000019e+02,-2.271824239999999975e+02,-3.325000000000000000e+02
-2.216898520000000019e+02,-2.267429710000000114e+02,-3.318750000000000000e+02
-2.216898520000000019e+02,-2.263035179999999968e+02,-3.450000000000000000e+02
-2.216898520000000019e+02,-2.258640649999999823e+02,-3.443750000000000000e+02
-2.216898520000000019e+02,-2.263035179999999968e+02,-3.312500000000000000e+02
-2.221293050000000164e+02,-2.258640649999999823e+02,-3.312500000000000000e+02
-2.216898520000000019e+02,-2.258640649999999823e+02,-3.306250000000000000e+02
-2.216898520000000019e+02,-2.254246119999999962e+02,-3.437500000000000000e+02
-2.216898520000000019e+02,-2.249851590000000101e+02,-3.431250000000000000e+02
-2.221293050000000164e+02,-2.249851590000000101e+02,-3.325000000000000000e+02
-2.221293050000000164e+02,-2.249851590000000101e+02,-3.312500000000000000e+02
-2.216898520000000019e+02,-2.249851590000000101e+02,-3.306250000000000000e+02
-2.216898520000000019e+02,-2.241062529999999811e+02,-3.431250000000000000e+02
-2.221293050000000164e+02,-2.241062529999999811e+02,-3.337500000000000000e+02
-2.216898520000000019e+02,-2.241062529999999811e+02,-3.331250000000000000e+02
-2.216898520000000019e+02,-2.245457059999999956e+02,-3.325000000000000000e+02
-2.221293050000000164e+02,-2.241062529999999811e+02,-3.312500000000000000e+02
-2.216898520000000019e+02,-2.241062529999999811e+02,-3.318750000000000000e+02
-2.216898520000000019e+02,-2.241062529999999811e+02,-3.306250000000000000e+02
-2.216898520000000019e+02,-2.236667999999999950e+02,-3.425000000000000000e+02
-2.216898520000000019e+02,-2.232273470000000088e+02,-3.418750000000000000e+02
-2.216898520000000019e+02,-2.236667999999999950e+02,-3.400000000000000000e+02
-2.216898520000000019e+02,-2.232273470000000088e+02,-3.406250000000000000e+02
-2.216898520000000019e+02,-2.236667999999999950e+02,-3.387500000000000000e+02
-2.216898520000000019e+02,-2.232273470000000088e+02,-3.381250000000000000e+02
-2.221293050000000164e+02,-2.232273470000000088e+02,-3.362500000000000000e+02
-2.216898520000000019e+02,-2.232273470000000088e+02,-3.356250000000000000e+02
-2.216898520000000019e+02,-2.236667999999999950e+02,-3.350000000000000000e+02
-2.216898520000000019e+02,-2.236667999999999950e+02,-3.337500000000000000e+02
-2.216898520000000019e+02,-2.236667999999999950e+02,-3.312500000000000000e+02
-2.216898520000000019e+02,-2.227878939999999943e+02,-3.412500000000000000e+02
-2.221293050000000164e+02,-2.223484410000000082e+02,-3.375000000000000000e+02
-2.216898520000000019e+02,-2.223484410000000082e+02,-3.381250000000000000e+02
-2.216898520000000019e+02,-2.223484410000000082e+02,-3.368750000000000000e+02
-2.216898520000000019e+02,-2.227878939999999943e+02,-3.362500000000000000e+02
-2.216898520000000019e+02,-2.219089879999999937e+02,-3.375000000000000000e+02
-2.208109460000000013e+02,-2.390476549999999918e+02,-3.393750000000000000e+02
-2.208109460000000013e+02,-2.394871080000000063e+02,-3.387500000000000000e+02
-2.208109460000000013e+02,-2.390476549999999918e+02,-3.381250000000000000e+02
-2.208109460000000013e+02,-2.381687489999999912e+02,-3.393750000000000000e+02
-2.208109460000000013e+02,-2.381687489999999912e+02,-3.381250000000000000e+02
-2.208109460000000013e+02,-2.372898429999999905e+02,-3.393750000000000000e+02
-2.208109460000000013e+02,-2.377292960000000051e+02,-3.375000000000000000e+02
-2.208109460000000013e+02,-2.372898429999999905e+02,-3.368750000000000000e+02
-2.208109460000000013e+02,-2.364109369999999899e+02,-3.393750000000000000e+02
-2.208109460000000013e+02,-2.364109369999999899e+02,-3.368750000000000000e+02
-2.212503990000000158e+02,-2.355320309999999893e+02,-3.400000000000000000e+02
-2.208109460000000013e+02,-2.355320309999999893e+02,-3.406250000000000000e+02
-2.208109460000000013e+02,-2.359714840000000038e+02,-3.400000000000000000e+02
-2.208109460000000013e+02,-2.359714840000000038e+02,-3.362500000000000000e+02
-2.208109460000000013e+02,-2.355320309999999893e+02,-3.356250000000000000e+02
-2.212503990000000158e+02,-2.346531249999999886e+02,-3.400000000000000000e+02
-2.208109460000000013e+02,-2.346531249999999886e+02,-3.406250000000000000e+02
-2.208109460000000013e+02,-2.350925780000000032e+02,-3.350000000000000000e+02
-2.208109460000000013e+02,-2.346531249999999886e+02,-3.343750000000000000e+02
-2.212503990000000158e+02,-2.337742189999999880e+02,-3.437500000000000000e+02
-2.208109460000000013e+02,-2.337742189999999880e+02,-3.443750000000000000e+02
-2.208109460000000013e+02,-2.342136720000000025e+02,-3.437500000000000000e+02
-2.208109460000000013e+02,-2.337742189999999880e+02,-3.431250000000000000e+02
-2.212503990000000158e+02,-2.337742189999999880e+02,-3.400000000000000000e+02
-2.208109460000000013e+02,-2.337742189999999880e+02,-3.406250000000000000e+02
-2.208109460000000013e+02,-2.337742189999999880e+02,-3.343750000000000000e+02
-2.212503990000000158e+02,-2.328953129999999874e+02,-3.437500000000000000e+02
-2.208109460000000013e+02,-2.328953129999999874e+02,-3.443750000000000000e+02
-2.208109460000000013e+02,-2.333347660000000019e+02,-3.425000000000000000e+02
-2.212503990000000158e+02,-2.328953129999999874e+02,-3.425000000000000000e+02
-2.208109460000000013e+02,-2.328953129999999874e+02,-3.418750000000000000e+02
-2.212503990000000158e+02,-2.328953129999999874e+02,-3.400000000000000000e+02
-2.208109460000000013e+02,-2.328953129999999874e+02,-3.406250000000000000e+02
-2.208109460000000013e+02,-2.333347660000000019e+02,-3.337500000000000000e+02
-2.208109460000000013e+02,-2.328953129999999874e+02,-3.331250000000000000e+02
-2.212503990000000158e+02,-2.320164069999999867e+02,-3.450000000000000000e+02
-2.208109460000000013e+02,-2.324558600000000013e+02,-3.450000000000000000e+02
-2.208109460000000013e+02,-2.324558600000000013e+02,-3.412500000000000000e+02
-2.212503990000000158e+02,-2.320164069999999867e+02,-3.412500000000000000e+02
-2.212503990000000158e+02,-2.320164069999999867e+02,-3.400000000000000000e+02
-2.208109460000000013e+02,-2.320164069999999867e+02,-3.331250000000000000e+02
-2.208109460000000013e+02,-2.311375009999999861e+02,-3.331250000000000000e+02
-2.208109460000000013e+02,-2.302585949999999855e+02,-3.331250000000000000e+02
-2.208109460000000013e+02,-2.293796889999999848e+02,-3.331250000000000000e+02
-2.208109460000000013e+02,-2.285007830000000126e+02,-3.331250000000000000e+02
-2.208109460000000013e+02,-2.280613299999999981e+02,-3.325000000000000000e+02
-2.212503990000000158e+02,-2.276218769999999836e+02,-3.325000000000000000e+02
-2.208109460000000013e+02,-2.276218769999999836e+02,-3.318750000000000000e+02
-2.208109460000000013e+02,-2.267429710000000114e+02,-3.318750000000000000e+02
-2.208109460000000013e+02,-2.263035179999999968e+02,-3.450000000000000000e+02
-2.208109460000000013e+02,-2.258640649999999823e+02,-3.443750000000000000e+02
-2.208109460000000013e+02,-2.263035179999999968e+02,-3.312500000000000000e+02
-2.208109460000000013e+02,-2.258640649999999823e+02,-3.306250000000000000e+02
-2.208109460000000013e+02,-2.254246119999999962e+02,-3.437500000000000000e+02
-2.208109460000000013e+02,-2.249851590000000101e+02,-3.431250000000000000e+02
-2.208109460000000013e+02,-2.249851590000000101e+02,-3.306250000000000000e+02
-2.208109460000000013e+02,-2.245457059999999956e+02,-3.425000000000000000e+02
-2.212503990000000158e+02,-2.241062529999999811e+02,-3.425000000000000000e+02
-2.208109460000000013e+02,-2.241062529999999811e+02,-3.418750000000000000e+02
-2.212503990000000158e+02,-2.241062529999999811e+02,-3.325000000000000000e+02
-2.208109460000000013e+02,-2.241062529999999811e+02,-3.306250000000000000e+02
-2.212503990000000158e+02,-2.232273470000000088e+02,-3.412500000000000000e+02
-2.208109460000000013e+02,-2.236667999999999950e+02,-3.412500000000000000e+02
-2.208109460000000013e+02,-2.236667999999999950e+02,-3.400000000000000000e+02
-2.208109460000000013e+02,-2.236667999999999950e+02,-3.387500000000000000e+02
-2.208109460000000013e+02,-2.232273470000000088e+02,-3.381250000000000000e+02
-2.208109460000000013e+02,-2.236667999999999950e+02,-3.350000000000000000e+02
-2.208109460000000013e+02,-2.232273470000000088e+02,-3.356250000000000000e+02
-2.208109460000000013e+02,-2.236667999999999950e+02,-3.337500000000000000e+02
-2.208109460000000013e+02,-2.236667999999999950e+02,-3.325000000000000000e+02
-2.212503990000000158e+02,-2.232273470000000088e+02,-3.312500000000000000e+02
-2.208109460000000013e+02,-2.232273470000000088e+02,-3.318750000000000000e+02
-2.208109460000000013e+02,-2.232273470000000088e+02,-3.306250000000000000e+02
-2.208109460000000013e+02,-2.223484410000000082e+02,-3.381250000000000000e+02
-2.212503990000000158e+02,-2.223484410000000082e+02,-3.362500000000000000e+02
-2.208109460000000013e+02,-2.223484410000000082e+02,-3.356250000000000000e+02
-2.208109460000000013e+02,-2.227878939999999943e+02,-3.312500000000000000e+02
-2.212503990000000158e+02,-2.214695350000000076e+02,-3.375000000000000000e+02
-2.208109460000000013e+02,-2.214695350000000076e+02,-3.381250000000000000e+02
-2.208109460000000013e+02,-2.214695350000000076e+02,-3.368750000000000000e+02
-2.208109460000000013e+02,-2.219089879999999937e+02,-3.362500000000000000e+02
-2.208109460000000013e+02,-2.210300819999999931e+02,-3.375000000000000000e+02
-2.199320400000000006e+02,-2.390476549999999918e+02,-3.393750000000000000e+02
-2.199320400000000006e+02,-2.394871080000000063e+02,-3.387500000000000000e+02
-2.199320400000000006e+02,-2.390476549999999918e+02,-3.381250000000000000e+02
-2.199320400000000006e+02,-2.381687489999999912e+02,-3.393750000000000000e+02
-2.199320400000000006e+02,-2.381687489999999912e+02,-3.381250000000000000e+02
-2.199320400000000006e+02,-2.372898429999999905e+02,-3.393750000000000000e+02
-2.199320400000000006e+02,-2.377292960000000051e+02,-3.375000000000000000e+02
-2.199320400000000006e+02,-2.372898429999999905e+02,-3.368750000000000000e+02
-2.203714930000000152e+02,-2.364109369999999899e+02,-3.400000000000000000e+02
-2.199320400000000006e+02,-2.364109369999999899e+02,-3.406250000000000000e+02
-2.199320400000000006e+02,-2.368503900000000044e+02,-3.400000000000000000e+02
-2.199320400000000006e+02,-2.368503900000000044e+02,-3.362500000000000000e+02
-2.203714930000000152e+02,-2.364109369999999899e+02,-3.362500000000000000e+02
-2.199320400000000006e+02,-2.364109369999999899e+02,-3.356250000000000000e+02
-2.199320400000000006e+02,-2.355320309999999893e+02,-3.406250000000000000e+02
-2.199320400000000006e+02,-2.359714840000000038e+02,-3.350000000000000000e+02
-2.203714930000000152e+02,-2.355320309999999893e+02,-3.350000000000000000e+02
-2.199320400000000006e+02,-2.355320309999999893e+02,-3.343750000000000000e+02
-2.203714930000000152e+02,-2.346531249999999886e+02,-3.437500000000000000e+02
-2.199320400000000006e+02,-2.346531249999999886e+02,-3.443750000000000000e+02
-2.199320400000000006e+02,-2.350925780000000032e+02,-3.437500000000000000e+02
-2.199320400000000006e+02,-2.346531249999999886e+02,-3.431250000000000000e+02
-2.199320400000000006e+02,-2.346531249999999886e+02,-3.406250000000000000e+02
-2.199320400000000006e+02,-2.346531249999999886e+02,-3.343750000000000000e+02
-2.199320400000000006e+02,-2.337742189999999880e+02,-3.443750000000000000e+02
-2.199320400000000006e+02,-2.342136720000000025e+02,-3.425000000000000000e+02
-2.203714930000000152e+02,-2.337742189999999880e+02,-3.425000000000000000e+02
-2.199320400000000006e+02,-2.342136720000000025e+02,-3.412500000000000000e+02
-2.203714930000000152e+02,-2.337742189999999880e+02,-3.412500000000000000e+02
-2.199320400000000006e+02,-2.342136720000000025e+02,-3.337500000000000000e+02
-2.203714930000000152e+02,-2.337742189999999880e+02,-3.337500000000000000e+02
-2.199320400000000006e+02,-2.337742189999999880e+02,-3.331250000000000000e+02
-2.203714930000000152e+02,-2.328953129999999874e+02,-3.450000000000000000e+02
-2.199320400000000006e+02,-2.333347660000000019e+02,-3.450000000000000000e+02
-2.203714930000000152e+02,-2.328953129999999874e+02,-3.412500000000000000e+02
-2.199320400000000006e+02,-2.328953129999999874e+02,-3.331250000000000000e+02
-2.199320400000000006e+02,-2.320164069999999867e+02,-3.331250000000000000e+02
-2.199320400000000006e+02,-2.311375009999999861e+02,-3.331250000000000000e+02
-2.199320400000000006e+02,-2.302585949999999855e+02,-3.331250000000000000e+02
-2.199320400000000006e+02,-2.293796889999999848e+02,-3.331250000000000000e+02
-2.199320400000000006e+02,-2.289402359999999987e+02,-3.325000000000000000e+02
-2.203714930000000152e+02,-2.285007830000000126e+02,-3.325000000000000000e+02
-2.199320400000000006e+02,-2.285007830000000126e+02,-3.318750000000000000e+02
-2.199320400000000006e+02,-2.276218769999999836e+02,-3.318750000000000000e+02
-2.199320400000000006e+02,-2.267429710000000114e+02,-3.318750000000000000e+02
-2.199320400000000006e+02,-2.263035179999999968e+02,-3.450000000000000000e+02
-2.199320400000000006e+02,-2.258640649999999823e+02,-3.443750000000000000e+02
-2.199320400000000006e+02,-2.263035179999999968e+02,-3.312500000000000000e+02
-2.199320400000000006e+02,-2.258640649999999823e+02,-3.306250000000000000e+02
-2.199320400000000006e+02,-2.254246119999999962e+02,-3.437500000000000000e+02
-2.199320400000000006e+02,-2.249851590000000101e+02,-3.431250000000000000e+02
-2.199320400000000006e+02,-2.249851590000000101e+02,-3.306250000000000000e+02
-2.199320400000000006e+02,-2.245457059999999956e+02,-3.425000000000000000e+02
-2.199320400000000006e+02,-2.241062529999999811e+02,-3.418750000000000000e+02
-2.199320400000000006e+02,-2.241062529999999811e+02,-3.306250000000000000e+02
-2.199320400000000006e+02,-2.236667999999999950e+02,-3.412500000000000000e+02
-2.199320400000000006e+02,-2.236667999999999950e+02,-3.400000000000000000e+02
-2.199320400000000006e+02,-2.236667999999999950e+02,-3.387500000000000000e+02
-2.199320400000000006e+02,-2.232273470000000088e+02,-3.381250000000000000e+02
-2.199320400000000006e+02,-2.236667999999999950e+02,-3.350000000000000000e+02
-2.199320400000000006e+02,-2.232273470000000088e+02,-3.356250000000000000e+02
-2.199320400000000006e+02,-2.236667999999999950e+02,-3.337500000000000000e+02
-2.199320400000000006e+02,-2.236667999999999950e+02,-3.325000000000000000e+02
-2.199320400000000006e+02,-2.232273470000000088e+02,-3.318750000000000000e+02
-2.199320400000000006e+02,-2.232273470000000088e+02,-3.306250000000000000e+02
-2.199320400000000006e+02,-2.223484410000000082e+02,-3.381250000000000000e+02
-2.199320400000000006e+02,-2.223484410000000082e+02,-3.356250000000000000e+02
-2.203714930000000152e+02,-2.223484410000000082e+02,-3.312500000000000000e+02
-2.199320400000000006e+02,-2.223484410000000082e+02,-3.318750000000000000e+02
-2.199320400000000006e+02,-2.223484410000000082e+02,-3.306250000000000000e+02
-2.199320400000000006e+02,-2.219089879999999937e+02,-3.375000000000000000e+02
-2.203714930000000152e+02,-2.214695350000000076e+02,-3.375000000000000000e+02
-2.199320400000000006e+02,-2.219089879999999937e+02,-3.362500000000000000e+02
-2.199320400000000006e+02,-2.219089879999999937e+02,-3.312500000000000000e+02
-2.190531340000000000e+02,-2.390476549999999918e+02,-3.393750000000000000e+02
-2.190531340000000000e+02,-2.394871080000000063e+02,-3.387500000000000000e+02
-2.190531340000000000e+02,-2.390476549999999918e+02,-3.381250000000000000e+02
-2.190531340000000000e+02,-2.381687489999999912e+02,-3.393750000000000000e+02
-2.190531340000000000e+02,-2.381687489999999912e+02,-3.381250000000000000e+02
-2.194925870000000145e+02,-2.372898429999999905e+02,-3.400000000000000000e+02
-2.190531340000000000e+02,-2.372898429999999905e+02,-3.406250000000000000e+02
-2.190531340000000000e+02,-2.377292960000000051e+02,-3.400000000000000000e+02
-2.190531340000000000e+02,-2.377292960000000051e+02,-3.375000000000000000e+02
-2.190531340000000000e+02,-2.372898429999999905e+02,-3.368750000000000000e+02
-2.190531340000000000e+02,-2.364109369999999899e+02,-3.406250000000000000e+02
-2.190531340000000000e+02,-2.368503900000000044e+02,-3.362500000000000000e+02
-2.190531340000000000e+02,-2.364109369999999899e+02,-3.356250000000000000e+02
-2.194925870000000145e+02,-2.355320309999999893e+02,-3.437500000000000000e+02
-2.190531340000000000e+02,-2.355320309999999893e+02,-3.443750000000000000e+02
-2.190531340000000000e+02,-2.359714840000000038e+02,-3.437500000000000000e+02
-2.190531340000000000e+02,-2.355320309999999893e+02,-3.431250000000000000e+02
-2.190531340000000000e+02,-2.355320309999999893e+02,-3.406250000000000000e+02
-2.190531340000000000e+02,-2.359714840000000038e+02,-3.350000000000000000e+02
-2.190531340000000000e+02,-2.355320309999999893e+02,-3.343750000000000000e+02
-2.190531340000000000e+02,-2.346531249999999886e+02,-3.443750000000000000e+02
-2.190531340000000000e+02,-2.350925780000000032e+02,-3.425000000000000000e+02
-2.194925870000000145e+02,-2.346531249999999886e+02,-3.425000000000000000e+02
-2.190531340000000000e+02,-2.350925780000000032e+02,-3.412500000000000000e+02
-2.194925870000000145e+02,-2.346531249999999886e+02,-3.412500000000000000e+02
-2.190531340000000000e+02,-2.350925780000000032e+02,-3.337500000000000000e+02
-2.194925870000000145e+02,-2.346531249999999886e+02,-3.337500000000000000e+02
-2.190531340000000000e+02,-2.346531249999999886e+02,-3.331250000000000000e+02
-2.194925870000000145e+02,-2.346531249999999886e+02,-3.300000000000000000e+02
-2.190531340000000000e+02,-2.346531249999999886e+02,-3.306250000000000000e+02
-2.190531340000000000e+02,-2.350925780000000032e+02,-3.300000000000000000e+02
-2.190531340000000000e+02,-2.346531249999999886e+02,-3.293750000000000000e+02
-2.194925870000000145e+02,-2.337742189999999880e+02,-3.450000000000000000e+02
-2.190531340000000000e+02,-2.342136720000000025e+02,-3.450000000000000000e+02
-2.190531340000000000e+02,-2.342136720000000025e+02,-3.325000000000000000e+02
-2.194925870000000145e+02,-2.337742189999999880e+02,-3.325000000000000000e+02
-2.190531340000000000e+02,-2.337742189999999880e+02,-3.318750000000000000e+02
-2.194925870000000145e+02,-2.337742189999999880e+02,-3.300000000000000000e+02
-2.190531340000000000e+02,-2.337742189999999880e+02,-3.306250000000000000e+02
-2.190531340000000000e+02,-2.337742189999999880e+02,-3.293750000000000000e+02
-2.194925870000000145e+02,-2.328953129999999874e+02,-3.325000000000000000e+02
-2.190531340000000000e+02,-2.328953129999999874e+02,-3.318750000000000000e+02
-2.194925870000000145e+02,-2.328953129999999874e+02,-3.300000000000000000e+02
-2.190531340000000000e+02,-2.328953129999999874e+02,-3.306250000000000000e+02
-2.190531340000000000e+02,-2.328953129999999874e+02,-3.293750000000000000e+02
-2.190531340000000000e+02,-2.324558600000000013e+02,-3.325000000000000000e+02
-2.190531340000000000e+02,-2.320164069999999867e+02,-3.331250000000000000e+02
-2.190531340000000000e+02,-2.324558600000000013e+02,-3.300000000000000000e+02
-2.190531340000000000e+02,-2.311375009999999861e+02,-3.331250000000000000e+02
-2.190531340000000000e+02,-2.302585949999999855e+02,-3.331250000000000000e+02
-2.190531340000000000e+02,-2.298191419999999994e+02,-3.325000000000000000e+02
-2.194925870000000145e+02,-2.293796889999999848e+02,-3.325000000000000000e+02
-2.190531340000000000e+02,-2.293796889999999848e+02,-3.318750000000000000e+02
-2.190531340000000000e+02,-2.285007830000000126e+02,-3.318750000000000000e+02
-2.190531340000000000e+02,-2.276218769999999836e+02,-3.318750000000000000e+02
-2.190531340000000000e+02,-2.267429710000000114e+02,-3.318750000000000000e+02
-2.194925870000000145e+02,-2.258640649999999823e+02,-3.450000000000000000e+02
-2.190531340000000000e+02,-2.263035179999999968e+02,-3.312500000000000000e+02
-2.190531340000000000e+02,-2.258640649999999823e+02,-3.306250000000000000e+02
-2.190531340000000000e+02,-2.254246119999999962e+02,-3.450000000000000000e+02
-2.190531340000000000e+02,-2.254246119999999962e+02,-3.437500000000000000e+02
-2.190531340000000000e+02,-2.249851590000000101e+02,-3.431250000000000000e+02
-2.190531340000000000e+02,-2.249851590000000101e+02,-3.306250000000000000e+02
-2.190531340000000000e+02,-2.245457059999999956e+02,-3.425000000000000000e+02
-2.190531340000000000e+02,-2.241062529999999811e+02,-3.418750000000000000e+02
-2.190531340000000000e+02,-2.241062529999999811e+02,-3.306250000000000000e+02
-2.190531340000000000e+02,-2.236667999999999950e+02,-3.412500000000000000e+02
-2.190531340000000000e+02,-2.236667999999999950e+02,-3.400000000000000000e+02
-2.190531340000000000e+02,-2.236667999999999950e+02,-3.387500000000000000e+02
-2.190531340000000000e+02,-2.232273470000000088e+02,-3.381250000000000000e+02
-2.190531340000000000e+02,-2.236667999999999950e+02,-3.350000000000000000e+02
