-1.940187500000000114e+02,-1.933468750000000114e+02,-3.122500000000000000e+02
-1.940187500000000114e+02,-1.929562500000000114e+02,-3.110000000000000000e+02
-1.944093750000000114e+02,-1.929562500000000114e+02,-3.122500000000000000e+02
-1.940187500000000114e+02,-1.925656250000000114e+02,-3.122500000000000000e+02
-1.932375000000000114e+02,-1.941281250000000114e+02,-3.122500000000000000e+02
-1.932375000000000114e+02,-1.937375000000000114e+02,-3.110000000000000000e+02
-1.936281250000000114e+02,-1.937375000000000114e+02,-3.122500000000000000e+02
-1.932375000000000114e+02,-1.929562500000000114e+02,-3.110000000000000000e+02
-1.932375000000000114e+02,-1.925656250000000114e+02,-3.097500000000000000e+02
-1.936281250000000114e+02,-1.921750000000000114e+02,-3.122500000000000000e+02
-1.936281250000000114e+02,-1.921750000000000114e+02,-3.097500000000000000e+02
-1.932375000000000114e+02,-1.921750000000000114e+02,-3.085000000000000000e+02
-1.932375000000000114e+02,-1.917843750000000114e+02,-3.122500000000000000e+02
-1.936281250000000114e+02,-1.913937500000000114e+02,-3.097500000000000000e+02
-1.932375000000000114e+02,-1.913937500000000114e+02,-3.110000000000000000e+02
-1.932375000000000114e+02,-1.913937500000000114e+02,-3.085000000000000000e+02
-1.932375000000000114e+02,-1.910031250000000114e+02,-3.097500000000000000e+02
-1.932375000000000114e+02,-1.894406250000000114e+02,-3.122500000000000000e+02
-1.932375000000000114e+02,-1.890500000000000114e+02,-3.110000000000000000e+02
-1.936281250000000114e+02,-1.890500000000000114e+02,-3.122500000000000000e+02
-1.932375000000000114e+02,-1.882687500000000114e+02,-3.110000000000000000e+02
-1.936281250000000114e+02,-1.882687500000000114e+02,-3.122500000000000000e+02
-1.932375000000000114e+02,-1.878781250000000114e+02,-3.122500000000000000e+02
-1.928468750000000114e+02,-1.937375000000000114e+02,-3.122500000000000000e+02
-1.924562500000000114e+02,-1.933468750000000114e+02,-3.097500000000000000e+02
-1.924562500000000114e+02,-1.933468750000000114e+02,-3.122500000000000000e+02
-1.928468750000000114e+02,-1.929562500000000114e+02,-3.097500000000000000e+02
-1.924562500000000114e+02,-1.929562500000000114e+02,-3.085000000000000000e+02
-1.924562500000000114e+02,-1.921750000000000114e+02,-3.085000000000000000e+02
-1.928468750000000114e+02,-1.913937500000000114e+02,-3.122500000000000000e+02
-1.924562500000000114e+02,-1.913937500000000114e+02,-3.085000000000000000e+02
-1.928468750000000114e+02,-1.906125000000000114e+02,-3.097500000000000000e+02
-1.924562500000000114e+02,-1.906125000000000114e+02,-3.110000000000000000e+02
-1.924562500000000114e+02,-1.910031250000000114e+02,-3.122500000000000000e+02
-1.924562500000000114e+02,-1.906125000000000114e+02,-3.085000000000000000e+02
-1.928468750000000114e+02,-1.898312500000000114e+02,-3.122500000000000000e+02
-1.924562500000000114e+02,-1.902218750000000114e+02,-3.097500000000000000e+02
-1.924562500000000114e+02,-1.898312500000000114e+02,-3.110000000000000000e+02
-1.924562500000000114e+02,-1.902218750000000114e+02,-3.122500000000000000e+02
-1.924562500000000114e+02,-1.890500000000000114e+02,-3.110000000000000000e+02
-1.924562500000000114e+02,-1.882687500000000114e+02,-3.110000000000000000e+02
-1.924562500000000114e+02,-1.878781250000000114e+02,-3.122500000000000000e+02
-1.920656250000000114e+02,-1.937375000000000114e+02,-3.097500000000000000e+02
-1.916750000000000114e+02,-1.937375000000000114e+02,-3.110000000000000000e+02
-1.916750000000000114e+02,-1.941281250000000114e+02,-3.097500000000000000e+02
-1.916750000000000114e+02,-1.937375000000000114e+02,-3.085000000000000000e+02
-1.916750000000000114e+02,-1.933468750000000114e+02,-3.122500000000000000e+02
-1.916750000000000114e+02,-1.929562500000000114e+02,-3.085000000000000000e+02
-1.916750000000000114e+02,-1.925656250000000114e+02,-3.072500000000000000e+02
-1.920656250000000114e+02,-1.921750000000000114e+02,-3.072500000000000000e+02
-1.920656250000000114e+02,-1.913937500000000114e+02,-3.072500000000000000e+02
-1.920656250000000114e+02,-1.906125000000000114e+02,-3.122500000000000000e+02
-1.920656250000000114e+02,-1.906125000000000114e+02,-3.072500000000000000e+02
-1.920656250000000114e+02,-1.898312500000000114e+02,-3.097500000000000000e+02
-1.920656250000000114e+02,-1.898312500000000114e+02,-3.072500000000000000e+02
-1.920656250000000114e+02,-1.890500000000000114e+02,-3.097500000000000000e+02
-1.920656250000000114e+02,-1.890500000000000114e+02,-3.072500000000000000e+02
-1.916750000000000114e+02,-1.886593750000000114e+02,-3.097500000000000000e+02
-1.916750000000000114e+02,-1.882687500000000114e+02,-3.110000000000000000e+02
-1.916750000000000114e+02,-1.886593750000000114e+02,-3.072500000000000000e+02
-1.916750000000000114e+02,-1.878781250000000114e+02,-3.122500000000000000e+02
-1.912843750000000114e+02,-1.937375000000000114e+02,-3.122500000000000000e+02
-1.908937500000000114e+02,-1.941281250000000114e+02,-3.122500000000000000e+02
-1.908937500000000114e+02,-1.941281250000000114e+02,-3.097500000000000000e+02
-1.908937500000000114e+02,-1.937375000000000114e+02,-3.085000000000000000e+02
-1.908937500000000114e+02,-1.933468750000000114e+02,-3.072500000000000000e+02
-1.912843750000000114e+02,-1.929562500000000114e+02,-3.072500000000000000e+02
-1.908937500000000114e+02,-1.886593750000000114e+02,-3.097500000000000000e+02
-1.908937500000000114e+02,-1.882687500000000114e+02,-3.110000000000000000e+02
-1.908937500000000114e+02,-1.886593750000000114e+02,-3.072500000000000000e+02
-1.908937500000000114e+02,-1.878781250000000114e+02,-3.122500000000000000e+02
-1.901125000000000114e+02,-1.949093750000000114e+02,-3.122500000000000000e+02
-1.901125000000000114e+02,-1.945187500000000114e+02,-3.110000000000000000e+02
-1.905031250000000114e+02,-1.945187500000000114e+02,-3.122500000000000000e+02
-1.901125000000000114e+02,-1.941281250000000114e+02,-3.097500000000000000e+02
-1.901125000000000114e+02,-1.937375000000000114e+02,-3.085000000000000000e+02
-1.901125000000000114e+02,-1.933468750000000114e+02,-3.072500000000000000e+02
-1.905031250000000114e+02,-1.882687500000000114e+02,-3.097500000000000000e+02
-1.901125000000000114e+02,-1.882687500000000114e+02,-3.085000000000000000e+02
-1.901125000000000114e+02,-1.886593750000000114e+02,-3.072500000000000000e+02
-1.901125000000000114e+02,-1.878781250000000114e+02,-3.097500000000000000e+02
-1.901125000000000114e+02,-1.878781250000000114e+02,-3.122500000000000000e+02
-1.893312500000000114e+02,-1.949093750000000114e+02,-3.122500000000000000e+02
-1.893312500000000114e+02,-1.945187500000000114e+02,-3.110000000000000000e+02
-1.893312500000000114e+02,-1.941281250000000114e+02,-3.097500000000000000e+02
-1.893312500000000114e+02,-1.937375000000000114e+02,-3.085000000000000000e+02
-1.893312500000000114e+02,-1.933468750000000114e+02,-3.072500000000000000e+02
-1.893312500000000114e+02,-1.886593750000000114e+02,-3.072500000000000000e+02
-1.893312500000000114e+02,-1.882687500000000114e+02,-3.085000000000000000e+02
-1.893312500000000114e+02,-1.878781250000000114e+02,-3.097500000000000000e+02
-1.893312500000000114e+02,-1.878781250000000114e+02,-3.122500000000000000e+02
-1.889406250000000114e+02,-1.945187500000000114e+02,-3.122500000000000000e+02
-1.885500000000000114e+02,-1.941281250000000114e+02,-3.122500000000000000e+02
-1.885500000000000114e+02,-1.941281250000000114e+02,-3.097500000000000000e+02
-1.885500000000000114e+02,-1.937375000000000114e+02,-3.085000000000000000e+02
-1.885500000000000114e+02,-1.933468750000000114e+02,-3.072500000000000000e+02
-1.885500000000000114e+02,-1.886593750000000114e+02,-3.072500000000000000e+02
-1.885500000000000114e+02,-1.882687500000000114e+02,-3.085000000000000000e+02
-1.885500000000000114e+02,-1.878781250000000114e+02,-3.097500000000000000e+02
-1.885500000000000114e+02,-1.878781250000000114e+02,-3.122500000000000000e+02
-1.881593750000000114e+02,-1.937375000000000114e+02,-3.097500000000000000e+02
-1.881593750000000114e+02,-1.937375000000000114e+02,-3.122500000000000000e+02
-1.877687500000000114e+02,-1.933468750000000114e+02,-3.122500000000000000e+02
-1.877687500000000114e+02,-1.933468750000000114e+02,-3.097500000000000000e+02
-1.877687500000000114e+02,-1.933468750000000114e+02,-3.072500000000000000e+02
-1.881593750000000114e+02,-1.882687500000000114e+02,-3.097500000000000000e+02
-1.877687500000000114e+02,-1.886593750000000114e+02,-3.097500000000000000e+02
-1.877687500000000114e+02,-1.882687500000000114e+02,-3.110000000000000000e+02
-1.877687500000000114e+02,-1.886593750000000114e+02,-3.072500000000000000e+02
-1.877687500000000114e+02,-1.878781250000000114e+02,-3.122500000000000000e+02
-1.873781250000000114e+02,-1.929562500000000114e+02,-3.097500000000000000e+02
-1.873781250000000114e+02,-1.929562500000000114e+02,-3.122500000000000000e+02
-1.873781250000000114e+02,-1.929562500000000114e+02,-3.072500000000000000e+02
-1.873781250000000114e+02,-1.921750000000000114e+02,-3.097500000000000000e+02
-1.873781250000000114e+02,-1.921750000000000114e+02,-3.122500000000000000e+02
-1.873781250000000114e+02,-1.921750000000000114e+02,-3.072500000000000000e+02
-1.869875000000000114e+02,-1.917843750000000114e+02,-3.122500000000000000e+02
-1.869875000000000114e+02,-1.917843750000000114e+02,-3.097500000000000000e+02
-1.869875000000000114e+02,-1.913937500000000114e+02,-3.085000000000000000e+02
-1.873781250000000114e+02,-1.913937500000000114e+02,-3.072500000000000000e+02
-1.873781250000000114e+02,-1.906125000000000114e+02,-3.072500000000000000e+02
-1.869875000000000114e+02,-1.906125000000000114e+02,-3.085000000000000000e+02
-1.873781250000000114e+02,-1.898312500000000114e+02,-3.072500000000000000e+02
-1.869875000000000114e+02,-1.898312500000000114e+02,-3.085000000000000000e+02
-1.873781250000000114e+02,-1.890500000000000114e+02,-3.072500000000000000e+02
-1.869875000000000114e+02,-1.890500000000000114e+02,-3.085000000000000000e+02
-1.873781250000000114e+02,-1.882687500000000114e+02,-3.122500000000000000e+02
-1.869875000000000114e+02,-1.886593750000000114e+02,-3.122500000000000000e+02
-1.869875000000000114e+02,-1.886593750000000114e+02,-3.097500000000000000e+02
-1.865968750000000114e+02,-1.913937500000000114e+02,-3.097500000000000000e+02
-1.865968750000000114e+02,-1.913937500000000114e+02,-3.122500000000000000e+02
-1.862062500000000114e+02,-1.906125000000000114e+02,-3.110000000000000000e+02
-1.862062500000000114e+02,-1.910031250000000114e+02,-3.097500000000000000e+02
-1.865968750000000114e+02,-1.906125000000000114e+02,-3.122500000000000000e+02
-1.862062500000000114e+02,-1.906125000000000114e+02,-3.085000000000000000e+02
-1.862062500000000114e+02,-1.898312500000000114e+02,-3.110000000000000000e+02
-1.865968750000000114e+02,-1.898312500000000114e+02,-3.122500000000000000e+02
-1.862062500000000114e+02,-1.898312500000000114e+02,-3.085000000000000000e+02
-1.862062500000000114e+02,-1.894406250000000114e+02,-3.097500000000000000e+02
-1.865968750000000114e+02,-1.890500000000000114e+02,-3.097500000000000000e+02
-1.865968750000000114e+02,-1.890500000000000114e+02,-3.122500000000000000e+02
-1.858156250000000114e+02,-1.906125000000000114e+02,-3.097500000000000000e+02
-1.858156250000000114e+02,-1.898312500000000114e+02,-3.097500000000000000e+02
