-1.666757812500000000e+02,-1.375781250000000000e+01,-7.227999879999999848e+02
-1.663515625000000000e+02,-1.375781250000000000e+01,-7.232999879999999848e+02
-1.663515625000000000e+02,-1.408203125000000000e+01,-7.227999879999999848e+02
-1.663515625000000000e+02,-1.375781250000000000e+01,-7.222999879999999848e+02
-1.663515625000000000e+02,-1.343359375000000000e+01,-7.227999879999999848e+02
-1.660273437500000000e+02,-1.440625000000000000e+01,-7.237999879999999848e+02
-1.657031250000000000e+02,-1.440625000000000000e+01,-7.242999879999999848e+02
-1.657031250000000000e+02,-1.473046875000000000e+01,-7.237999879999999848e+02
-1.657031250000000000e+02,-1.440625000000000000e+01,-7.232999879999999848e+02
-1.660273437500000000e+02,-1.375781250000000000e+01,-7.247999879999999848e+02
-1.657031250000000000e+02,-1.375781250000000000e+01,-7.252999879999999848e+02
-1.657031250000000000e+02,-1.408203125000000000e+01,-7.247999879999999848e+02
-1.660273437500000000e+02,-1.375781250000000000e+01,-7.237999879999999848e+02
-1.657031250000000000e+02,-1.408203125000000000e+01,-7.227999879999999848e+02
-1.657031250000000000e+02,-1.375781250000000000e+01,-7.222999879999999848e+02
-1.660273437500000000e+02,-1.310937500000000000e+01,-7.247999879999999848e+02
-1.657031250000000000e+02,-1.310937500000000000e+01,-7.252999879999999848e+02
-1.660273437500000000e+02,-1.310937500000000000e+01,-7.237999879999999848e+02
-1.660273437500000000e+02,-1.310937500000000000e+01,-7.227999879999999848e+02
-1.657031250000000000e+02,-1.310937500000000000e+01,-7.222999879999999848e+02
-1.657031250000000000e+02,-1.278515625000000000e+01,-7.247999879999999848e+02
-1.660273437500000000e+02,-1.246093750000000000e+01,-7.237999879999999848e+02
-1.657031250000000000e+02,-1.246093750000000000e+01,-7.242999879999999848e+02
-1.660273437500000000e+02,-1.246093750000000000e+01,-7.227999879999999848e+02
-1.657031250000000000e+02,-1.246093750000000000e+01,-7.222999879999999848e+02
-1.657031250000000000e+02,-1.213671875000000000e+01,-7.237999879999999848e+02
-1.657031250000000000e+02,-1.213671875000000000e+01,-7.227999879999999848e+02
-1.653789062500000000e+02,-1.440625000000000000e+01,-7.247999879999999848e+02
-1.650546875000000000e+02,-1.440625000000000000e+01,-7.252999879999999848e+02
-1.650546875000000000e+02,-1.473046875000000000e+01,-7.247999879999999848e+02
-1.650546875000000000e+02,-1.473046875000000000e+01,-7.237999879999999848e+02
-1.650546875000000000e+02,-1.440625000000000000e+01,-7.232999879999999848e+02
-1.650546875000000000e+02,-1.375781250000000000e+01,-7.252999879999999848e+02
-1.650546875000000000e+02,-1.408203125000000000e+01,-7.227999879999999848e+02
-1.650546875000000000e+02,-1.408203125000000000e+01,-7.217999879999999848e+02
-1.653789062500000000e+02,-1.375781250000000000e+01,-7.217999879999999848e+02
-1.650546875000000000e+02,-1.375781250000000000e+01,-7.212999879999999848e+02
-1.650546875000000000e+02,-1.310937500000000000e+01,-7.252999879999999848e+02
-1.650546875000000000e+02,-1.343359375000000000e+01,-7.217999879999999848e+02
-1.650546875000000000e+02,-1.310937500000000000e+01,-7.222999879999999848e+02
-1.653789062500000000e+02,-1.246093750000000000e+01,-7.247999879999999848e+02
-1.650546875000000000e+02,-1.246093750000000000e+01,-7.252999879999999848e+02
-1.650546875000000000e+02,-1.246093750000000000e+01,-7.222999879999999848e+02
-1.650546875000000000e+02,-1.213671875000000000e+01,-7.247999879999999848e+02
-1.653789062500000000e+02,-1.181250000000000000e+01,-7.237999879999999848e+02
-1.650546875000000000e+02,-1.181250000000000000e+01,-7.242999879999999848e+02
-1.650546875000000000e+02,-1.181250000000000000e+01,-7.232999879999999848e+02
-1.650546875000000000e+02,-1.213671875000000000e+01,-7.227999879999999848e+02
-1.650546875000000000e+02,-1.148828125000000000e+01,-7.237999879999999848e+02
-1.647304687500000000e+02,-1.505468750000000000e+01,-7.247999879999999848e+02
-1.644062500000000000e+02,-1.505468750000000000e+01,-7.252999879999999848e+02
-1.644062500000000000e+02,-1.537890625000000000e+01,-7.247999879999999848e+02
-1.644062500000000000e+02,-1.537890625000000000e+01,-7.237999879999999848e+02
-1.647304687500000000e+02,-1.505468750000000000e+01,-7.237999879999999848e+02
-1.644062500000000000e+02,-1.505468750000000000e+01,-7.232999879999999848e+02
-1.644062500000000000e+02,-1.440625000000000000e+01,-7.252999879999999848e+02
-1.644062500000000000e+02,-1.473046875000000000e+01,-7.227999879999999848e+02
-1.647304687500000000e+02,-1.440625000000000000e+01,-7.227999879999999848e+02
-1.644062500000000000e+02,-1.473046875000000000e+01,-7.217999879999999848e+02
-1.647304687500000000e+02,-1.440625000000000000e+01,-7.217999879999999848e+02
-1.644062500000000000e+02,-1.473046875000000000e+01,-7.207999879999999848e+02
-1.647304687500000000e+02,-1.440625000000000000e+01,-7.207999879999999848e+02
-1.644062500000000000e+02,-1.375781250000000000e+01,-7.252999879999999848e+02
-1.644062500000000000e+02,-1.408203125000000000e+01,-7.207999879999999848e+02
-1.644062500000000000e+02,-1.375781250000000000e+01,-7.212999879999999848e+02
-1.644062500000000000e+02,-1.310937500000000000e+01,-7.252999879999999848e+02
-1.647304687500000000e+02,-1.310937500000000000e+01,-7.217999879999999848e+02
-1.644062500000000000e+02,-1.310937500000000000e+01,-7.212999879999999848e+02
-1.644062500000000000e+02,-1.246093750000000000e+01,-7.252999879999999848e+02
-1.644062500000000000e+02,-1.278515625000000000e+01,-7.217999879999999848e+02
-1.644062500000000000e+02,-1.246093750000000000e+01,-7.222999879999999848e+02
-1.644062500000000000e+02,-1.213671875000000000e+01,-7.247999879999999848e+02
-1.644062500000000000e+02,-1.181250000000000000e+01,-7.242999879999999848e+02
-1.647304687500000000e+02,-1.181250000000000000e+01,-7.227999879999999848e+02
-1.644062500000000000e+02,-1.181250000000000000e+01,-7.222999879999999848e+02
-1.644062500000000000e+02,-1.148828125000000000e+01,-7.237999879999999848e+02
-1.644062500000000000e+02,-1.148828125000000000e+01,-7.227999879999999848e+02
-1.640820312500000000e+02,-1.570312500000000000e+01,-7.237999879999999848e+02
-1.637578125000000000e+02,-1.570312500000000000e+01,-7.242999879999999848e+02
-1.637578125000000000e+02,-1.602734375000000000e+01,-7.237999879999999848e+02
-1.637578125000000000e+02,-1.570312500000000000e+01,-7.232999879999999848e+02
-1.637578125000000000e+02,-1.505468750000000000e+01,-7.252999879999999848e+02
-1.637578125000000000e+02,-1.537890625000000000e+01,-7.247999879999999848e+02
-1.637578125000000000e+02,-1.537890625000000000e+01,-7.227999879999999848e+02
-1.640820312500000000e+02,-1.505468750000000000e+01,-7.227999879999999848e+02
-1.637578125000000000e+02,-1.537890625000000000e+01,-7.217999879999999848e+02
-1.640820312500000000e+02,-1.505468750000000000e+01,-7.217999879999999848e+02
-1.637578125000000000e+02,-1.537890625000000000e+01,-7.207999879999999848e+02
-1.640820312500000000e+02,-1.505468750000000000e+01,-7.207999879999999848e+02
-1.637578125000000000e+02,-1.440625000000000000e+01,-7.252999879999999848e+02
-1.637578125000000000e+02,-1.375781250000000000e+01,-7.252999879999999848e+02
-1.640820312500000000e+02,-1.375781250000000000e+01,-7.207999879999999848e+02
-1.637578125000000000e+02,-1.310937500000000000e+01,-7.252999879999999848e+02
-1.640820312500000000e+02,-1.310937500000000000e+01,-7.207999879999999848e+02
-1.637578125000000000e+02,-1.246093750000000000e+01,-7.252999879999999848e+02
-1.640820312500000000e+02,-1.246093750000000000e+01,-7.217999879999999848e+02
-1.637578125000000000e+02,-1.246093750000000000e+01,-7.212999879999999848e+02
-1.637578125000000000e+02,-1.278515625000000000e+01,-7.207999879999999848e+02
-1.637578125000000000e+02,-1.213671875000000000e+01,-7.247999879999999848e+02
-1.637578125000000000e+02,-1.181250000000000000e+01,-7.242999879999999848e+02
-1.637578125000000000e+02,-1.213671875000000000e+01,-7.217999879999999848e+02
-1.637578125000000000e+02,-1.181250000000000000e+01,-7.222999879999999848e+02
-1.637578125000000000e+02,-1.148828125000000000e+01,-7.237999879999999848e+02
-1.637578125000000000e+02,-1.148828125000000000e+01,-7.227999879999999848e+02
-1.634335937500000000e+02,-1.570312500000000000e+01,-7.247999879999999848e+02
-1.631093750000000000e+02,-1.570312500000000000e+01,-7.252999879999999848e+02
-1.631093750000000000e+02,-1.602734375000000000e+01,-7.247999879999999848e+02
-1.631093750000000000e+02,-1.602734375000000000e+01,-7.237999879999999848e+02
-1.631093750000000000e+02,-1.570312500000000000e+01,-7.232999879999999848e+02
-1.631093750000000000e+02,-1.505468750000000000e+01,-7.252999879999999848e+02
-1.631093750000000000e+02,-1.537890625000000000e+01,-7.227999879999999848e+02
-1.631093750000000000e+02,-1.537890625000000000e+01,-7.217999879999999848e+02
-1.631093750000000000e+02,-1.537890625000000000e+01,-7.207999879999999848e+02
-1.631093750000000000e+02,-1.440625000000000000e+01,-7.252999879999999848e+02
-1.631093750000000000e+02,-1.375781250000000000e+01,-7.252999879999999848e+02
-1.634335937500000000e+02,-1.310937500000000000e+01,-7.257999879999999848e+02
-1.631093750000000000e+02,-1.343359375000000000e+01,-7.257999879999999848e+02
-1.631093750000000000e+02,-1.278515625000000000e+01,-7.257999879999999848e+02
-1.631093750000000000e+02,-1.246093750000000000e+01,-7.252999879999999848e+02
-1.631093750000000000e+02,-1.278515625000000000e+01,-7.207999879999999848e+02
-1.631093750000000000e+02,-1.246093750000000000e+01,-7.212999879999999848e+02
-1.631093750000000000e+02,-1.213671875000000000e+01,-7.247999879999999848e+02
-1.631093750000000000e+02,-1.181250000000000000e+01,-7.242999879999999848e+02
-1.634335937500000000e+02,-1.181250000000000000e+01,-7.217999879999999848e+02
-1.631093750000000000e+02,-1.181250000000000000e+01,-7.212999879999999848e+02
-1.631093750000000000e+02,-1.148828125000000000e+01,-7.237999879999999848e+02
-1.631093750000000000e+02,-1.148828125000000000e+01,-7.227999879999999848e+02
-1.631093750000000000e+02,-1.148828125000000000e+01,-7.217999879999999848e+02
-1.627851562500000000e+02,-1.635156250000000000e+01,-7.237999879999999848e+02
-1.624609375000000000e+02,-1.635156250000000000e+01,-7.242999879999999848e+02
-1.624609375000000000e+02,-1.667578125000000000e+01,-7.237999879999999848e+02
-1.624609375000000000e+02,-1.635156250000000000e+01,-7.232999879999999848e+02
-1.624609375000000000e+02,-1.570312500000000000e+01,-7.252999879999999848e+02
-1.624609375000000000e+02,-1.602734375000000000e+01,-7.247999879999999848e+02
-1.624609375000000000e+02,-1.602734375000000000e+01,-7.227999879999999848e+02
-1.627851562500000000e+02,-1.570312500000000000e+01,-7.227999879999999848e+02
-1.624609375000000000e+02,-1.602734375000000000e+01,-7.217999879999999848e+02
-1.627851562500000000e+02,-1.570312500000000000e+01,-7.217999879999999848e+02
-1.624609375000000000e+02,-1.602734375000000000e+01,-7.207999879999999848e+02
-1.627851562500000000e+02,-1.570312500000000000e+01,-7.207999879999999848e+02
-1.624609375000000000e+02,-1.505468750000000000e+01,-7.252999879999999848e+02
-1.624609375000000000e+02,-1.440625000000000000e+01,-7.252999879999999848e+02
-1.624609375000000000e+02,-1.375781250000000000e+01,-7.252999879999999848e+02
-1.627851562500000000e+02,-1.310937500000000000e+01,-7.257999879999999848e+02
-1.624609375000000000e+02,-1.310937500000000000e+01,-7.252999879999999848e+02
-1.624609375000000000e+02,-1.246093750000000000e+01,-7.252999879999999848e+02
-1.624609375000000000e+02,-1.278515625000000000e+01,-7.207999879999999848e+02
-1.624609375000000000e+02,-1.246093750000000000e+01,-7.212999879999999848e+02
-1.624609375000000000e+02,-1.213671875000000000e+01,-7.247999879999999848e+02
-1.627851562500000000e+02,-1.181250000000000000e+01,-7.237999879999999848e+02
-1.624609375000000000e+02,-1.213671875000000000e+01,-7.237999879999999848e+02
-1.624609375000000000e+02,-1.181250000000000000e+01,-7.232999879999999848e+02
-1.624609375000000000e+02,-1.181250000000000000e+01,-7.212999879999999848e+02
-1.624609375000000000e+02,-1.148828125000000000e+01,-7.227999879999999848e+02
-1.624609375000000000e+02,-1.148828125000000000e+01,-7.217999879999999848e+02
-1.618125000000000000e+02,-1.635156250000000000e+01,-7.242999879999999848e+02
-1.618125000000000000e+02,-1.667578125000000000e+01,-7.237999879999999848e+02
-1.618125000000000000e+02,-1.635156250000000000e+01,-7.232999879999999848e+02
-1.621367187500000000e+02,-1.635156250000000000e+01,-7.207999879999999848e+02
-1.618125000000000000e+02,-1.635156250000000000e+01,-7.212999879999999848e+02
-1.618125000000000000e+02,-1.667578125000000000e+01,-7.207999879999999848e+02
-1.621367187500000000e+02,-1.570312500000000000e+01,-7.247999879999999848e+02
-1.618125000000000000e+02,-1.570312500000000000e+01,-7.242999879999999848e+02
-1.618125000000000000e+02,-1.602734375000000000e+01,-7.227999879999999848e+02
-1.618125000000000000e+02,-1.602734375000000000e+01,-7.217999879999999848e+02
-1.618125000000000000e+02,-1.505468750000000000e+01,-7.252999879999999848e+02
-1.618125000000000000e+02,-1.537890625000000000e+01,-7.247999879999999848e+02
-1.618125000000000000e+02,-1.440625000000000000e+01,-7.252999879999999848e+02
-1.618125000000000000e+02,-1.375781250000000000e+01,-7.252999879999999848e+02
-1.618125000000000000e+02,-1.310937500000000000e+01,-7.252999879999999848e+02
-1.618125000000000000e+02,-1.246093750000000000e+01,-7.252999879999999848e+02
-1.618125000000000000e+02,-1.278515625000000000e+01,-7.207999879999999848e+02
-1.618125000000000000e+02,-1.246093750000000000e+01,-7.212999879999999848e+02
-1.618125000000000000e+02,-1.213671875000000000e+01,-7.247999879999999848e+02
-1.618125000000000000e+02,-1.213671875000000000e+01,-7.237999879999999848e+02
-1.618125000000000000e+02,-1.181250000000000000e+01,-7.232999879999999848e+02
-1.618125000000000000e+02,-1.181250000000000000e+01,-7.212999879999999848e+02
-1.618125000000000000e+02,-1.148828125000000000e+01,-7.227999879999999848e+02
-1.618125000000000000e+02,-1.148828125000000000e+01,-7.217999879999999848e+02
-1.611640625000000000e+02,-1.635156250000000000e+01,-7.242999879999999848e+02
-1.611640625000000000e+02,-1.667578125000000000e+01,-7.237999879999999848e+02
-1.611640625000000000e+02,-1.635156250000000000e+01,-7.232999879999999848e+02
-1.611640625000000000e+02,-1.635156250000000000e+01,-7.212999879999999848e+02
-1.611640625000000000e+02,-1.667578125000000000e+01,-7.207999879999999848e+02
-1.611640625000000000e+02,-1.570312500000000000e+01,-7.242999879999999848e+02
-1.611640625000000000e+02,-1.602734375000000000e+01,-7.227999879999999848e+02
-1.611640625000000000e+02,-1.602734375000000000e+01,-7.217999879999999848e+02
-1.614882812500000000e+02,-1.505468750000000000e+01,-7.247999879999999848e+02
-1.611640625000000000e+02,-1.505468750000000000e+01,-7.242999879999999848e+02
-1.614882812500000000e+02,-1.440625000000000000e+01,-7.247999879999999848e+02
-1.611640625000000000e+02,-1.440625000000000000e+01,-7.242999879999999848e+02
-1.614882812500000000e+02,-1.375781250000000000e+01,-7.247999879999999848e+02
-1.611640625000000000e+02,-1.375781250000000000e+01,-7.242999879999999848e+02
-1.614882812500000000e+02,-1.310937500000000000e+01,-7.247999879999999848e+02
-1.611640625000000000e+02,-1.310937500000000000e+01,-7.242999879999999848e+02
-1.614882812500000000e+02,-1.246093750000000000e+01,-7.247999879999999848e+02
-1.611640625000000000e+02,-1.278515625000000000e+01,-7.237999879999999848e+02
-1.614882812500000000e+02,-1.246093750000000000e+01,-7.237999879999999848e+02
-1.611640625000000000e+02,-1.246093750000000000e+01,-7.232999879999999848e+02
-1.611640625000000000e+02,-1.278515625000000000e+01,-7.207999879999999848e+02
-1.611640625000000000e+02,-1.246093750000000000e+01,-7.212999879999999848e+02
-1.614882812500000000e+02,-1.181250000000000000e+01,-7.227999879999999848e+02
-1.611640625000000000e+02,-1.213671875000000000e+01,-7.227999879999999848e+02
-1.614882812500000000e+02,-1.181250000000000000e+01,-7.217999879999999848e+02
-1.611640625000000000e+02,-1.213671875000000000e+01,-7.217999879999999848e+02
-1.608398437500000000e+02,-1.635156250000000000e+01,-7.237999879999999848e+02
-1.608398437500000000e+02,-1.635156250000000000e+01,-7.207999879999999848e+02
-1.608398437500000000e+02,-1.570312500000000000e+01,-7.237999879999999848e+02
-1.605156250000000000e+02,-1.602734375000000000e+01,-7.227999879999999848e+02
-1.605156250000000000e+02,-1.570312500000000000e+01,-7.232999879999999848e+02
-1.605156250000000000e+02,-1.602734375000000000e+01,-7.217999879999999848e+02
-1.605156250000000000e+02,-1.602734375000000000e+01,-7.207999879999999848e+02
-1.605156250000000000e+02,-1.505468750000000000e+01,-7.242999879999999848e+02
-1.605156250000000000e+02,-1.537890625000000000e+01,-7.237999879999999848e+02
-1.605156250000000000e+02,-1.440625000000000000e+01,-7.242999879999999848e+02
-1.605156250000000000e+02,-1.408203125000000000e+01,-7.237999879999999848e+02
-1.608398437500000000e+02,-1.375781250000000000e+01,-7.237999879999999848e+02
-1.605156250000000000e+02,-1.375781250000000000e+01,-7.232999879999999848e+02
-1.608398437500000000e+02,-1.310937500000000000e+01,-7.237999879999999848e+02
-1.605156250000000000e+02,-1.310937500000000000e+01,-7.232999879999999848e+02
-1.608398437500000000e+02,-1.246093750000000000e+01,-7.227999879999999848e+02
-1.605156250000000000e+02,-1.278515625000000000e+01,-7.227999879999999848e+02
-1.608398437500000000e+02,-1.246093750000000000e+01,-7.217999879999999848e+02
-1.605156250000000000e+02,-1.278515625000000000e+01,-7.217999879999999848e+02
-1.605156250000000000e+02,-1.278515625000000000e+01,-7.207999879999999848e+02
-1.598671875000000000e+02,-1.570312500000000000e+01,-7.232999879999999848e+02
-1.598671875000000000e+02,-1.602734375000000000e+01,-7.227999879999999848e+02
-1.601914062500000000e+02,-1.570312500000000000e+01,-7.217999879999999848e+02
-1.598671875000000000e+02,-1.570312500000000000e+01,-7.222999879999999848e+02
-1.601914062500000000e+02,-1.570312500000000000e+01,-7.207999879999999848e+02
-1.601914062500000000e+02,-1.505468750000000000e+01,-7.237999879999999848e+02
-1.598671875000000000e+02,-1.505468750000000000e+01,-7.232999879999999848e+02
-1.598671875000000000e+02,-1.537890625000000000e+01,-7.217999879999999848e+02
-1.598671875000000000e+02,-1.505468750000000000e+01,-7.212999879999999848e+02
-1.601914062500000000e+02,-1.505468750000000000e+01,-7.207999879999999848e+02
-1.601914062500000000e+02,-1.440625000000000000e+01,-7.237999879999999848e+02
-1.598671875000000000e+02,-1.440625000000000000e+01,-7.232999879999999848e+02
-1.601914062500000000e+02,-1.440625000000000000e+01,-7.207999879999999848e+02
-1.598671875000000000e+02,-1.440625000000000000e+01,-7.212999879999999848e+02
-1.601914062500000000e+02,-1.375781250000000000e+01,-7.227999879999999848e+02
-1.598671875000000000e+02,-1.408203125000000000e+01,-7.227999879999999848e+02
-1.601914062500000000e+02,-1.375781250000000000e+01,-7.217999879999999848e+02
-1.598671875000000000e+02,-1.408203125000000000e+01,-7.217999879999999848e+02
-1.601914062500000000e+02,-1.375781250000000000e+01,-7.207999879999999848e+02
-1.601914062500000000e+02,-1.310937500000000000e+01,-7.227999879999999848e+02
-1.601914062500000000e+02,-1.310937500000000000e+01,-7.217999879999999848e+02
-1.601914062500000000e+02,-1.310937500000000000e+01,-7.207999879999999848e+02
-1.595429687500000000e+02,-1.570312500000000000e+01,-7.227999879999999848e+02
-1.595429687500000000e+02,-1.505468750000000000e+01,-7.227999879999999848e+02
-1.595429687500000000e+02,-1.505468750000000000e+01,-7.217999879999999848e+02
-1.595429687500000000e+02,-1.440625000000000000e+01,-7.227999879999999848e+02
-1.595429687500000000e+02,-1.440625000000000000e+01,-7.217999879999999848e+02
