-1.919937500000000057e+02,-1.730421875000000114e+02,-3.405000000000000000e+02
-1.919937500000000057e+02,-1.726906250000000114e+02,-3.392500000000000000e+02
-1.923453125000000057e+02,-1.726906250000000114e+02,-3.405000000000000000e+02
-1.919937500000000057e+02,-1.723390625000000114e+02,-3.380000000000000000e+02
-1.923453125000000057e+02,-1.719875000000000114e+02,-3.380000000000000000e+02
-1.923453125000000057e+02,-1.719875000000000114e+02,-3.405000000000000000e+02
-1.919937500000000057e+02,-1.719875000000000114e+02,-3.367500000000000000e+02
-1.923453125000000057e+02,-1.712843750000000114e+02,-3.380000000000000000e+02
-1.923453125000000057e+02,-1.712843750000000114e+02,-3.405000000000000000e+02
-1.919937500000000057e+02,-1.712843750000000114e+02,-3.367500000000000000e+02
-1.923453125000000057e+02,-1.705812500000000114e+02,-3.380000000000000000e+02
-1.923453125000000057e+02,-1.705812500000000114e+02,-3.405000000000000000e+02
-1.919937500000000057e+02,-1.705812500000000114e+02,-3.367500000000000000e+02
-1.919937500000000057e+02,-1.702296875000000114e+02,-3.405000000000000000e+02
-1.923453125000000057e+02,-1.698781250000000114e+02,-3.380000000000000000e+02
-1.919937500000000057e+02,-1.698781250000000114e+02,-3.392500000000000000e+02
-1.919937500000000057e+02,-1.698781250000000114e+02,-3.367500000000000000e+02
-1.919937500000000057e+02,-1.695265625000000114e+02,-3.380000000000000000e+02
-1.916421875000000057e+02,-1.733937500000000114e+02,-3.405000000000000000e+02
-1.912906250000000057e+02,-1.737453125000000114e+02,-3.380000000000000000e+02
-1.916421875000000057e+02,-1.733937500000000114e+02,-3.380000000000000000e+02
-1.912906250000000057e+02,-1.737453125000000114e+02,-3.405000000000000000e+02
-1.912906250000000057e+02,-1.733937500000000114e+02,-3.367500000000000000e+02
-1.916421875000000057e+02,-1.726906250000000114e+02,-3.380000000000000000e+02
-1.912906250000000057e+02,-1.726906250000000114e+02,-3.367500000000000000e+02
-1.912906250000000057e+02,-1.719875000000000114e+02,-3.367500000000000000e+02
-1.912906250000000057e+02,-1.712843750000000114e+02,-3.367500000000000000e+02
-1.912906250000000057e+02,-1.705812500000000114e+02,-3.367500000000000000e+02
-1.916421875000000057e+02,-1.698781250000000114e+02,-3.405000000000000000e+02
-1.912906250000000057e+02,-1.698781250000000114e+02,-3.367500000000000000e+02
-1.916421875000000057e+02,-1.691750000000000114e+02,-3.380000000000000000e+02
-1.916421875000000057e+02,-1.691750000000000114e+02,-3.405000000000000000e+02
-1.912906250000000057e+02,-1.691750000000000114e+02,-3.367500000000000000e+02
-1.912906250000000057e+02,-1.688234375000000114e+02,-3.405000000000000000e+02
-1.916421875000000057e+02,-1.684718750000000114e+02,-3.380000000000000000e+02
-1.912906250000000057e+02,-1.684718750000000114e+02,-3.392500000000000000e+02
-1.912906250000000057e+02,-1.684718750000000114e+02,-3.367500000000000000e+02
-1.912906250000000057e+02,-1.681203125000000114e+02,-3.380000000000000000e+02
-1.905875000000000057e+02,-1.744484375000000114e+02,-3.405000000000000000e+02
-1.905875000000000057e+02,-1.740968750000000114e+02,-3.392500000000000000e+02
-1.909390625000000057e+02,-1.740968750000000114e+02,-3.405000000000000000e+02
-1.905875000000000057e+02,-1.737453125000000114e+02,-3.380000000000000000e+02
-1.905875000000000057e+02,-1.733937500000000114e+02,-3.367500000000000000e+02
-1.905875000000000057e+02,-1.726906250000000114e+02,-3.367500000000000000e+02
-1.905875000000000057e+02,-1.719875000000000114e+02,-3.367500000000000000e+02
-1.905875000000000057e+02,-1.712843750000000114e+02,-3.367500000000000000e+02
-1.905875000000000057e+02,-1.705812500000000114e+02,-3.367500000000000000e+02
-1.905875000000000057e+02,-1.698781250000000114e+02,-3.367500000000000000e+02
-1.905875000000000057e+02,-1.691750000000000114e+02,-3.367500000000000000e+02
-1.909390625000000057e+02,-1.684718750000000114e+02,-3.405000000000000000e+02
-1.905875000000000057e+02,-1.684718750000000114e+02,-3.367500000000000000e+02
-1.909390625000000057e+02,-1.677687500000000114e+02,-3.380000000000000000e+02
-1.905875000000000057e+02,-1.677687500000000114e+02,-3.392500000000000000e+02
-1.905875000000000057e+02,-1.681203125000000114e+02,-3.405000000000000000e+02
-1.905875000000000057e+02,-1.677687500000000114e+02,-3.367500000000000000e+02
-1.905875000000000057e+02,-1.674171875000000114e+02,-3.380000000000000000e+02
-1.898843750000000057e+02,-1.744484375000000114e+02,-3.405000000000000000e+02
-1.898843750000000057e+02,-1.740968750000000114e+02,-3.392500000000000000e+02
-1.898843750000000057e+02,-1.737453125000000114e+02,-3.380000000000000000e+02
-1.898843750000000057e+02,-1.733937500000000114e+02,-3.367500000000000000e+02
-1.898843750000000057e+02,-1.726906250000000114e+02,-3.367500000000000000e+02
-1.898843750000000057e+02,-1.723390625000000114e+02,-3.355000000000000000e+02
-1.902359375000000057e+02,-1.719875000000000114e+02,-3.355000000000000000e+02
-1.902359375000000057e+02,-1.712843750000000114e+02,-3.355000000000000000e+02
-1.902359375000000057e+02,-1.705812500000000114e+02,-3.355000000000000000e+02
-1.898843750000000057e+02,-1.702296875000000114e+02,-3.355000000000000000e+02
-1.898843750000000057e+02,-1.698781250000000114e+02,-3.367500000000000000e+02
-1.898843750000000057e+02,-1.691750000000000114e+02,-3.367500000000000000e+02
-1.898843750000000057e+02,-1.684718750000000114e+02,-3.367500000000000000e+02
-1.902359375000000057e+02,-1.677687500000000114e+02,-3.405000000000000000e+02
-1.898843750000000057e+02,-1.677687500000000114e+02,-3.367500000000000000e+02
-1.898843750000000057e+02,-1.674171875000000114e+02,-3.405000000000000000e+02
-1.898843750000000057e+02,-1.674171875000000114e+02,-3.380000000000000000e+02
-1.891812500000000057e+02,-1.744484375000000114e+02,-3.405000000000000000e+02
-1.891812500000000057e+02,-1.740968750000000114e+02,-3.392500000000000000e+02
-1.891812500000000057e+02,-1.737453125000000114e+02,-3.380000000000000000e+02
-1.891812500000000057e+02,-1.733937500000000114e+02,-3.367500000000000000e+02
-1.891812500000000057e+02,-1.730421875000000114e+02,-3.355000000000000000e+02
-1.895328125000000057e+02,-1.726906250000000114e+02,-3.355000000000000000e+02
-1.895328125000000057e+02,-1.698781250000000114e+02,-3.355000000000000000e+02
-1.895328125000000057e+02,-1.691750000000000114e+02,-3.355000000000000000e+02
-1.891812500000000057e+02,-1.688234375000000114e+02,-3.355000000000000000e+02
-1.891812500000000057e+02,-1.684718750000000114e+02,-3.367500000000000000e+02
-1.891812500000000057e+02,-1.677687500000000114e+02,-3.367500000000000000e+02
-1.891812500000000057e+02,-1.670656250000000114e+02,-3.392500000000000000e+02
-1.895328125000000057e+02,-1.670656250000000114e+02,-3.405000000000000000e+02
-1.891812500000000057e+02,-1.674171875000000114e+02,-3.380000000000000000e+02
-1.891812500000000057e+02,-1.667140625000000114e+02,-3.405000000000000000e+02
-1.884781250000000057e+02,-1.744484375000000114e+02,-3.405000000000000000e+02
-1.884781250000000057e+02,-1.740968750000000114e+02,-3.392500000000000000e+02
-1.884781250000000057e+02,-1.737453125000000114e+02,-3.380000000000000000e+02
-1.884781250000000057e+02,-1.737453125000000114e+02,-3.355000000000000000e+02
-1.888296875000000057e+02,-1.733937500000000114e+02,-3.355000000000000000e+02
-1.888296875000000057e+02,-1.684718750000000114e+02,-3.355000000000000000e+02
-1.884781250000000057e+02,-1.681203125000000114e+02,-3.355000000000000000e+02
-1.884781250000000057e+02,-1.677687500000000114e+02,-3.367500000000000000e+02
-1.888296875000000057e+02,-1.670656250000000114e+02,-3.380000000000000000e+02
-1.884781250000000057e+02,-1.670656250000000114e+02,-3.367500000000000000e+02
-1.884781250000000057e+02,-1.667140625000000114e+02,-3.380000000000000000e+02
-1.884781250000000057e+02,-1.667140625000000114e+02,-3.405000000000000000e+02
-1.877750000000000057e+02,-1.744484375000000114e+02,-3.405000000000000000e+02
-1.877750000000000057e+02,-1.740968750000000114e+02,-3.392500000000000000e+02
-1.877750000000000057e+02,-1.737453125000000114e+02,-3.380000000000000000e+02
-1.877750000000000057e+02,-1.737453125000000114e+02,-3.355000000000000000e+02
-1.877750000000000057e+02,-1.681203125000000114e+02,-3.355000000000000000e+02
-1.877750000000000057e+02,-1.677687500000000114e+02,-3.367500000000000000e+02
-1.881265625000000057e+02,-1.670656250000000114e+02,-3.380000000000000000e+02
-1.877750000000000057e+02,-1.674171875000000114e+02,-3.380000000000000000e+02
-1.877750000000000057e+02,-1.670656250000000114e+02,-3.392500000000000000e+02
-1.877750000000000057e+02,-1.667140625000000114e+02,-3.405000000000000000e+02
-1.870718750000000057e+02,-1.744484375000000114e+02,-3.405000000000000000e+02
-1.870718750000000057e+02,-1.740968750000000114e+02,-3.392500000000000000e+02
-1.870718750000000057e+02,-1.737453125000000114e+02,-3.380000000000000000e+02
-1.874234375000000057e+02,-1.733937500000000114e+02,-3.355000000000000000e+02
-1.870718750000000057e+02,-1.733937500000000114e+02,-3.367500000000000000e+02
-1.870718750000000057e+02,-1.730421875000000114e+02,-3.355000000000000000e+02
-1.870718750000000057e+02,-1.681203125000000114e+02,-3.355000000000000000e+02
-1.870718750000000057e+02,-1.677687500000000114e+02,-3.367500000000000000e+02
-1.870718750000000057e+02,-1.674171875000000114e+02,-3.380000000000000000e+02
-1.870718750000000057e+02,-1.670656250000000114e+02,-3.392500000000000000e+02
-1.870718750000000057e+02,-1.667140625000000114e+02,-3.405000000000000000e+02
-1.863687500000000057e+02,-1.744484375000000114e+02,-3.405000000000000000e+02
-1.863687500000000057e+02,-1.740968750000000114e+02,-3.392500000000000000e+02
-1.867203125000000057e+02,-1.733937500000000114e+02,-3.380000000000000000e+02
-1.863687500000000057e+02,-1.733937500000000114e+02,-3.392500000000000000e+02
-1.863687500000000057e+02,-1.730421875000000114e+02,-3.380000000000000000e+02
-1.863687500000000057e+02,-1.730421875000000114e+02,-3.355000000000000000e+02
-1.867203125000000057e+02,-1.684718750000000114e+02,-3.355000000000000000e+02
-1.863687500000000057e+02,-1.688234375000000114e+02,-3.355000000000000000e+02
-1.863687500000000057e+02,-1.684718750000000114e+02,-3.367500000000000000e+02
-1.863687500000000057e+02,-1.677687500000000114e+02,-3.367500000000000000e+02
-1.867203125000000057e+02,-1.670656250000000114e+02,-3.405000000000000000e+02
-1.863687500000000057e+02,-1.674171875000000114e+02,-3.405000000000000000e+02
-1.863687500000000057e+02,-1.674171875000000114e+02,-3.380000000000000000e+02
-1.856656250000000057e+02,-1.744484375000000114e+02,-3.405000000000000000e+02
-1.856656250000000057e+02,-1.740968750000000114e+02,-3.392500000000000000e+02
-1.856656250000000057e+02,-1.733937500000000114e+02,-3.392500000000000000e+02
-1.856656250000000057e+02,-1.730421875000000114e+02,-3.380000000000000000e+02
-1.860171875000000057e+02,-1.726906250000000114e+02,-3.355000000000000000e+02
-1.856656250000000057e+02,-1.726906250000000114e+02,-3.367500000000000000e+02
-1.860171875000000057e+02,-1.719875000000000114e+02,-3.355000000000000000e+02
-1.856656250000000057e+02,-1.719875000000000114e+02,-3.367500000000000000e+02
-1.856656250000000057e+02,-1.716359375000000114e+02,-3.355000000000000000e+02
-1.860171875000000057e+02,-1.698781250000000114e+02,-3.355000000000000000e+02
-1.856656250000000057e+02,-1.702296875000000114e+02,-3.355000000000000000e+02
-1.856656250000000057e+02,-1.698781250000000114e+02,-3.367500000000000000e+02
-1.860171875000000057e+02,-1.691750000000000114e+02,-3.355000000000000000e+02
-1.856656250000000057e+02,-1.691750000000000114e+02,-3.367500000000000000e+02
-1.856656250000000057e+02,-1.684718750000000114e+02,-3.367500000000000000e+02
-1.856656250000000057e+02,-1.677687500000000114e+02,-3.367500000000000000e+02
-1.856656250000000057e+02,-1.674171875000000114e+02,-3.380000000000000000e+02
-1.856656250000000057e+02,-1.674171875000000114e+02,-3.405000000000000000e+02
-1.853140625000000057e+02,-1.740968750000000114e+02,-3.405000000000000000e+02
-1.849625000000000057e+02,-1.737453125000000114e+02,-3.405000000000000000e+02
-1.849625000000000057e+02,-1.733937500000000114e+02,-3.392500000000000000e+02
-1.853140625000000057e+02,-1.726906250000000114e+02,-3.380000000000000000e+02
-1.849625000000000057e+02,-1.726906250000000114e+02,-3.392500000000000000e+02
-1.849625000000000057e+02,-1.723390625000000114e+02,-3.380000000000000000e+02
-1.849625000000000057e+02,-1.719875000000000114e+02,-3.367500000000000000e+02
-1.853140625000000057e+02,-1.712843750000000114e+02,-3.355000000000000000e+02
-1.849625000000000057e+02,-1.712843750000000114e+02,-3.367500000000000000e+02
-1.853140625000000057e+02,-1.705812500000000114e+02,-3.355000000000000000e+02
-1.849625000000000057e+02,-1.705812500000000114e+02,-3.367500000000000000e+02
-1.849625000000000057e+02,-1.698781250000000114e+02,-3.367500000000000000e+02
-1.849625000000000057e+02,-1.691750000000000114e+02,-3.367500000000000000e+02
-1.849625000000000057e+02,-1.684718750000000114e+02,-3.367500000000000000e+02
-1.853140625000000057e+02,-1.677687500000000114e+02,-3.405000000000000000e+02
-1.853140625000000057e+02,-1.677687500000000114e+02,-3.380000000000000000e+02
-1.849625000000000057e+02,-1.681203125000000114e+02,-3.380000000000000000e+02
-1.849625000000000057e+02,-1.681203125000000114e+02,-3.405000000000000000e+02
-1.842593750000000057e+02,-1.737453125000000114e+02,-3.405000000000000000e+02
-1.842593750000000057e+02,-1.733937500000000114e+02,-3.392500000000000000e+02
-1.842593750000000057e+02,-1.726906250000000114e+02,-3.392500000000000000e+02
-1.846109375000000057e+02,-1.719875000000000114e+02,-3.380000000000000000e+02
-1.842593750000000057e+02,-1.719875000000000114e+02,-3.392500000000000000e+02
-1.842593750000000057e+02,-1.716359375000000114e+02,-3.380000000000000000e+02
-1.842593750000000057e+02,-1.712843750000000114e+02,-3.367500000000000000e+02
-1.842593750000000057e+02,-1.705812500000000114e+02,-3.367500000000000000e+02
-1.842593750000000057e+02,-1.698781250000000114e+02,-3.367500000000000000e+02
-1.842593750000000057e+02,-1.691750000000000114e+02,-3.367500000000000000e+02
-1.846109375000000057e+02,-1.684718750000000114e+02,-3.405000000000000000e+02
-1.846109375000000057e+02,-1.684718750000000114e+02,-3.380000000000000000e+02
-1.842593750000000057e+02,-1.688234375000000114e+02,-3.380000000000000000e+02
-1.842593750000000057e+02,-1.688234375000000114e+02,-3.405000000000000000e+02
-1.839078125000000057e+02,-1.733937500000000114e+02,-3.405000000000000000e+02
-1.835562500000000057e+02,-1.730421875000000114e+02,-3.405000000000000000e+02
-1.835562500000000057e+02,-1.726906250000000114e+02,-3.392500000000000000e+02
-1.835562500000000057e+02,-1.719875000000000114e+02,-3.392500000000000000e+02
-1.839078125000000057e+02,-1.712843750000000114e+02,-3.380000000000000000e+02
-1.835562500000000057e+02,-1.712843750000000114e+02,-3.392500000000000000e+02
-1.839078125000000057e+02,-1.705812500000000114e+02,-3.380000000000000000e+02
-1.835562500000000057e+02,-1.705812500000000114e+02,-3.392500000000000000e+02
-1.839078125000000057e+02,-1.698781250000000114e+02,-3.380000000000000000e+02
-1.835562500000000057e+02,-1.698781250000000114e+02,-3.392500000000000000e+02
-1.835562500000000057e+02,-1.695265625000000114e+02,-3.405000000000000000e+02
-1.839078125000000057e+02,-1.691750000000000114e+02,-3.405000000000000000e+02
-1.839078125000000057e+02,-1.691750000000000114e+02,-3.380000000000000000e+02
-1.832046875000000057e+02,-1.726906250000000114e+02,-3.405000000000000000e+02
-1.828531250000000057e+02,-1.723390625000000114e+02,-3.405000000000000000e+02
-1.828531250000000057e+02,-1.719875000000000114e+02,-3.392500000000000000e+02
-1.828531250000000057e+02,-1.712843750000000114e+02,-3.392500000000000000e+02
-1.828531250000000057e+02,-1.705812500000000114e+02,-3.392500000000000000e+02
-1.828531250000000057e+02,-1.698781250000000114e+02,-3.392500000000000000e+02
-1.828531250000000057e+02,-1.695265625000000114e+02,-3.405000000000000000e+02
-1.825015625000000057e+02,-1.719875000000000114e+02,-3.405000000000000000e+02
-1.825015625000000057e+02,-1.712843750000000114e+02,-3.405000000000000000e+02
-1.825015625000000057e+02,-1.705812500000000114e+02,-3.405000000000000000e+02
-1.825015625000000057e+02,-1.698781250000000114e+02,-3.405000000000000000e+02
