-1.655255181875000119e+02,4.278862757499999958e+01,-9.176999510000000555e+02
-1.652393853750000119e+02,4.278862757499999958e+01,-9.181999510000000555e+02
-1.652393853750000119e+02,4.250249476249999958e+01,-9.176999510000000555e+02
-1.655255181875000119e+02,4.336089319999999958e+01,-9.176999510000000555e+02
-1.652393853750000119e+02,4.336089319999999958e+01,-9.181999510000000555e+02
-1.652393853750000119e+02,4.364702601249999958e+01,-9.176999510000000555e+02
-1.646671197500000119e+02,4.135796351249999958e+01,-9.246999510000000555e+02
-1.646671197500000119e+02,4.164409632499999958e+01,-9.241999510000000555e+02
-1.649532525625000119e+02,4.164409632499999958e+01,-9.246999510000000555e+02
-1.646671197500000119e+02,4.221636194999999958e+01,-9.241999510000000555e+02
-1.649532525625000119e+02,4.221636194999999958e+01,-9.246999510000000555e+02
-1.646671197500000119e+02,4.278862757499999958e+01,-9.241999510000000555e+02
-1.649532525625000119e+02,4.278862757499999958e+01,-9.246999510000000555e+02
-1.646671197500000119e+02,4.278862757499999958e+01,-9.181999510000000555e+02
-1.646671197500000119e+02,4.250249476249999958e+01,-9.176999510000000555e+02
-1.646671197500000119e+02,4.307476038749999958e+01,-9.246999510000000555e+02
-1.649532525625000119e+02,4.336089319999999958e+01,-9.196999510000000555e+02
-1.646671197500000119e+02,4.336089319999999958e+01,-9.201999510000000555e+02
-1.646671197500000119e+02,4.307476038749999958e+01,-9.196999510000000555e+02
-1.646671197500000119e+02,4.307476038749999958e+01,-9.186999510000000555e+02
-1.649532525625000119e+02,4.336089319999999958e+01,-9.186999510000000555e+02
-1.649532525625000119e+02,4.393315882499999958e+01,-9.196999510000000555e+02
-1.646671197500000119e+02,4.393315882499999958e+01,-9.201999510000000555e+02
-1.649532525625000119e+02,4.393315882499999958e+01,-9.186999510000000555e+02
-1.649532525625000119e+02,4.393315882499999958e+01,-9.176999510000000555e+02
-1.649532525625000119e+02,4.450542444999999958e+01,-9.206999510000000555e+02
-1.646671197500000119e+02,4.450542444999999958e+01,-9.211999510000000555e+02
-1.646671197500000119e+02,4.421929163749999958e+01,-9.206999510000000555e+02
-1.649532525625000119e+02,4.450542444999999958e+01,-9.196999510000000555e+02
-1.649532525625000119e+02,4.450542444999999958e+01,-9.186999510000000555e+02
-1.646671197500000119e+02,4.450542444999999958e+01,-9.181999510000000555e+02
-1.646671197500000119e+02,4.421929163749999958e+01,-9.176999510000000555e+02
-1.649532525625000119e+02,4.507769007499999958e+01,-9.206999510000000555e+02
-1.646671197500000119e+02,4.507769007499999958e+01,-9.211999510000000555e+02
-1.649532525625000119e+02,4.507769007499999958e+01,-9.196999510000000555e+02
-1.649532525625000119e+02,4.507769007499999958e+01,-9.186999510000000555e+02
-1.646671197500000119e+02,4.507769007499999958e+01,-9.181999510000000555e+02
-1.649532525625000119e+02,4.564995569999999958e+01,-9.206999510000000555e+02
-1.646671197500000119e+02,4.564995569999999958e+01,-9.211999510000000555e+02
-1.649532525625000119e+02,4.564995569999999958e+01,-9.196999510000000555e+02
-1.649532525625000119e+02,4.564995569999999958e+01,-9.186999510000000555e+02
-1.646671197500000119e+02,4.564995569999999958e+01,-9.181999510000000555e+02
-1.646671197500000119e+02,4.593608851249999958e+01,-9.206999510000000555e+02
-1.649532525625000119e+02,4.622222132499999958e+01,-9.196999510000000555e+02
-1.646671197500000119e+02,4.622222132499999958e+01,-9.201999510000000555e+02
-1.646671197500000119e+02,4.622222132499999958e+01,-9.191999510000000555e+02
-1.646671197500000119e+02,4.593608851249999958e+01,-9.186999510000000555e+02
-1.646671197500000119e+02,4.650835413749999958e+01,-9.196999510000000555e+02
-1.640948541250000119e+02,4.135796351249999958e+01,-9.246999510000000555e+02
-1.640948541250000119e+02,4.164409632499999958e+01,-9.241999510000000555e+02
-1.640948541250000119e+02,4.221636194999999958e+01,-9.241999510000000555e+02
-1.640948541250000119e+02,4.250249476249999958e+01,-9.236999510000000555e+02
-1.643809869375000119e+02,4.278862757499999958e+01,-9.236999510000000555e+02
-1.640948541250000119e+02,4.250249476249999958e+01,-9.226999510000000555e+02
-1.643809869375000119e+02,4.278862757499999958e+01,-9.226999510000000555e+02
-1.640948541250000119e+02,4.250249476249999958e+01,-9.216999510000000555e+02
-1.643809869375000119e+02,4.278862757499999958e+01,-9.216999510000000555e+02
-1.640948541250000119e+02,4.250249476249999958e+01,-9.206999510000000555e+02
-1.643809869375000119e+02,4.278862757499999958e+01,-9.206999510000000555e+02
-1.640948541250000119e+02,4.278862757499999958e+01,-9.201999510000000555e+02
-1.643809869375000119e+02,4.278862757499999958e+01,-9.176999510000000555e+02
-1.643809869375000119e+02,4.336089319999999958e+01,-9.246999510000000555e+02
-1.643809869375000119e+02,4.336089319999999958e+01,-9.236999510000000555e+02
-1.643809869375000119e+02,4.336089319999999958e+01,-9.226999510000000555e+02
-1.643809869375000119e+02,4.336089319999999958e+01,-9.216999510000000555e+02
-1.643809869375000119e+02,4.336089319999999958e+01,-9.206999510000000555e+02
-1.640948541250000119e+02,4.307476038749999958e+01,-9.196999510000000555e+02
-1.640948541250000119e+02,4.307476038749999958e+01,-9.186999510000000555e+02
-1.640948541250000119e+02,4.307476038749999958e+01,-9.176999510000000555e+02
-1.640948541250000119e+02,4.364702601249999958e+01,-9.246999510000000555e+02
-1.643809869375000119e+02,4.393315882499999958e+01,-9.236999510000000555e+02
-1.640948541250000119e+02,4.393315882499999958e+01,-9.241999510000000555e+02
-1.643809869375000119e+02,4.393315882499999958e+01,-9.226999510000000555e+02
-1.643809869375000119e+02,4.393315882499999958e+01,-9.216999510000000555e+02
-1.643809869375000119e+02,4.393315882499999958e+01,-9.206999510000000555e+02
-1.643809869375000119e+02,4.450542444999999958e+01,-9.236999510000000555e+02
-1.640948541250000119e+02,4.450542444999999958e+01,-9.241999510000000555e+02
-1.643809869375000119e+02,4.450542444999999958e+01,-9.226999510000000555e+02
-1.643809869375000119e+02,4.450542444999999958e+01,-9.216999510000000555e+02
-1.643809869375000119e+02,4.450542444999999958e+01,-9.176999510000000555e+02
-1.643809869375000119e+02,4.507769007499999958e+01,-9.236999510000000555e+02
-1.640948541250000119e+02,4.507769007499999958e+01,-9.241999510000000555e+02
-1.640948541250000119e+02,4.507769007499999958e+01,-9.231999510000000555e+02
-1.640948541250000119e+02,4.479155726249999958e+01,-9.226999510000000555e+02
-1.643809869375000119e+02,4.507769007499999958e+01,-9.216999510000000555e+02
-1.640948541250000119e+02,4.507769007499999958e+01,-9.221999510000000555e+02
-1.643809869375000119e+02,4.507769007499999958e+01,-9.176999510000000555e+02
-1.640948541250000119e+02,4.536382288749999958e+01,-9.236999510000000555e+02
-1.643809869375000119e+02,4.564995569999999958e+01,-9.216999510000000555e+02
-1.640948541250000119e+02,4.564995569999999958e+01,-9.221999510000000555e+02
-1.643809869375000119e+02,4.564995569999999958e+01,-9.176999510000000555e+02
-1.643809869375000119e+02,4.622222132499999958e+01,-9.216999510000000555e+02
-1.640948541250000119e+02,4.622222132499999958e+01,-9.221999510000000555e+02
-1.643809869375000119e+02,4.622222132499999958e+01,-9.206999510000000555e+02
-1.643809869375000119e+02,4.622222132499999958e+01,-9.186999510000000555e+02
-1.643809869375000119e+02,4.622222132499999958e+01,-9.176999510000000555e+02
-1.640948541250000119e+02,4.650835413749999958e+01,-9.216999510000000555e+02
-1.643809869375000119e+02,4.679448694999999958e+01,-9.206999510000000555e+02
-1.640948541250000119e+02,4.679448694999999958e+01,-9.211999510000000555e+02
-1.640948541250000119e+02,4.650835413749999958e+01,-9.196999510000000555e+02
-1.640948541250000119e+02,4.679448694999999958e+01,-9.201999510000000555e+02
-1.640948541250000119e+02,4.650835413749999958e+01,-9.186999510000000555e+02
-1.643809869375000119e+02,4.679448694999999958e+01,-9.176999510000000555e+02
-1.640948541250000119e+02,4.679448694999999958e+01,-9.181999510000000555e+02
-1.640948541250000119e+02,4.708061976249999958e+01,-9.206999510000000555e+02
-1.640948541250000119e+02,4.708061976249999958e+01,-9.176999510000000555e+02
-1.638087213125000119e+02,4.164409632499999958e+01,-9.246999510000000555e+02
-1.638087213125000119e+02,4.221636194999999958e+01,-9.246999510000000555e+02
-1.638087213125000119e+02,4.221636194999999958e+01,-9.216999510000000555e+02
-1.635225885000000119e+02,4.221636194999999958e+01,-9.221999510000000555e+02
-1.635225885000000119e+02,4.193022913749999958e+01,-9.216999510000000555e+02
-1.635225885000000119e+02,4.193022913749999958e+01,-9.206999510000000555e+02
-1.638087213125000119e+02,4.221636194999999958e+01,-9.206999510000000555e+02
-1.635225885000000119e+02,4.221636194999999958e+01,-9.201999510000000555e+02
-1.638087213125000119e+02,4.278862757499999958e+01,-9.246999510000000555e+02
-1.635225885000000119e+02,4.250249476249999958e+01,-9.236999510000000555e+02
-1.635225885000000119e+02,4.278862757499999958e+01,-9.241999510000000555e+02
-1.635225885000000119e+02,4.250249476249999958e+01,-9.226999510000000555e+02
-1.635225885000000119e+02,4.250249476249999958e+01,-9.196999510000000555e+02
-1.638087213125000119e+02,4.278862757499999958e+01,-9.196999510000000555e+02
-1.635225885000000119e+02,4.278862757499999958e+01,-9.191999510000000555e+02
-1.635225885000000119e+02,4.336089319999999958e+01,-9.241999510000000555e+02
-1.638087213125000119e+02,4.336089319999999958e+01,-9.246999510000000555e+02
-1.635225885000000119e+02,4.307476038749999958e+01,-9.186999510000000555e+02
-1.635225885000000119e+02,4.307476038749999958e+01,-9.176999510000000555e+02
-1.635225885000000119e+02,4.393315882499999958e+01,-9.241999510000000555e+02
-1.635225885000000119e+02,4.450542444999999958e+01,-9.241999510000000555e+02
-1.635225885000000119e+02,4.507769007499999958e+01,-9.241999510000000555e+02
-1.638087213125000119e+02,4.507769007499999958e+01,-9.226999510000000555e+02
-1.638087213125000119e+02,4.564995569999999958e+01,-9.236999510000000555e+02
-1.635225885000000119e+02,4.564995569999999958e+01,-9.241999510000000555e+02
-1.638087213125000119e+02,4.564995569999999958e+01,-9.226999510000000555e+02
-1.638087213125000119e+02,4.622222132499999958e+01,-9.236999510000000555e+02
-1.635225885000000119e+02,4.622222132499999958e+01,-9.241999510000000555e+02
-1.638087213125000119e+02,4.622222132499999958e+01,-9.226999510000000555e+02
-1.638087213125000119e+02,4.679448694999999958e+01,-9.236999510000000555e+02
-1.635225885000000119e+02,4.679448694999999958e+01,-9.241999510000000555e+02
-1.635225885000000119e+02,4.679448694999999958e+01,-9.231999510000000555e+02
-1.635225885000000119e+02,4.650835413749999958e+01,-9.226999510000000555e+02
-1.638087213125000119e+02,4.679448694999999958e+01,-9.216999510000000555e+02
-1.635225885000000119e+02,4.679448694999999958e+01,-9.221999510000000555e+02
-1.638087213125000119e+02,4.679448694999999958e+01,-9.196999510000000555e+02
-1.638087213125000119e+02,4.679448694999999958e+01,-9.186999510000000555e+02
-1.635225885000000119e+02,4.708061976249999958e+01,-9.236999510000000555e+02
-1.635225885000000119e+02,4.708061976249999958e+01,-9.216999510000000555e+02
-1.638087213125000119e+02,4.736675257499999958e+01,-9.206999510000000555e+02
-1.635225885000000119e+02,4.736675257499999958e+01,-9.211999510000000555e+02
-1.635225885000000119e+02,4.736675257499999958e+01,-9.201999510000000555e+02
-1.635225885000000119e+02,4.708061976249999958e+01,-9.196999510000000555e+02
-1.635225885000000119e+02,4.708061976249999958e+01,-9.186999510000000555e+02
-1.638087213125000119e+02,4.736675257499999958e+01,-9.176999510000000555e+02
-1.635225885000000119e+02,4.736675257499999958e+01,-9.181999510000000555e+02
-1.635225885000000119e+02,4.765288538749999958e+01,-9.206999510000000555e+02
-1.635225885000000119e+02,4.765288538749999958e+01,-9.176999510000000555e+02
-1.632364556875000119e+02,4.221636194999999958e+01,-9.226999510000000555e+02
-1.629503228750000119e+02,4.221636194999999958e+01,-9.231999510000000555e+02
-1.629503228750000119e+02,4.193022913749999958e+01,-9.226999510000000555e+02
-1.629503228750000119e+02,4.193022913749999958e+01,-9.216999510000000555e+02
-1.629503228750000119e+02,4.193022913749999958e+01,-9.206999510000000555e+02
-1.629503228750000119e+02,4.221636194999999958e+01,-9.201999510000000555e+02
-1.629503228750000119e+02,4.278862757499999958e+01,-9.241999510000000555e+02
-1.629503228750000119e+02,4.250249476249999958e+01,-9.236999510000000555e+02
-1.629503228750000119e+02,4.250249476249999958e+01,-9.196999510000000555e+02
-1.629503228750000119e+02,4.278862757499999958e+01,-9.191999510000000555e+02
-1.629503228750000119e+02,4.336089319999999958e+01,-9.241999510000000555e+02
-1.629503228750000119e+02,4.307476038749999958e+01,-9.186999510000000555e+02
-1.629503228750000119e+02,4.307476038749999958e+01,-9.176999510000000555e+02
-1.629503228750000119e+02,4.393315882499999958e+01,-9.241999510000000555e+02
-1.629503228750000119e+02,4.450542444999999958e+01,-9.241999510000000555e+02
-1.629503228750000119e+02,4.507769007499999958e+01,-9.241999510000000555e+02
-1.629503228750000119e+02,4.564995569999999958e+01,-9.241999510000000555e+02
-1.629503228750000119e+02,4.622222132499999958e+01,-9.241999510000000555e+02
-1.629503228750000119e+02,4.679448694999999958e+01,-9.241999510000000555e+02
-1.632364556875000119e+02,4.679448694999999958e+01,-9.226999510000000555e+02
-1.629503228750000119e+02,4.708061976249999958e+01,-9.236999510000000555e+02
-1.632364556875000119e+02,4.736675257499999958e+01,-9.226999510000000555e+02
-1.629503228750000119e+02,4.736675257499999958e+01,-9.231999510000000555e+02
-1.632364556875000119e+02,4.736675257499999958e+01,-9.216999510000000555e+02
-1.632364556875000119e+02,4.736675257499999958e+01,-9.196999510000000555e+02
-1.629503228750000119e+02,4.736675257499999958e+01,-9.191999510000000555e+02
-1.629503228750000119e+02,4.708061976249999958e+01,-9.186999510000000555e+02
-1.629503228750000119e+02,4.736675257499999958e+01,-9.181999510000000555e+02
-1.629503228750000119e+02,4.765288538749999958e+01,-9.226999510000000555e+02
-1.632364556875000119e+02,4.793901819999999958e+01,-9.216999510000000555e+02
-1.629503228750000119e+02,4.793901819999999958e+01,-9.221999510000000555e+02
-1.629503228750000119e+02,4.765288538749999958e+01,-9.206999510000000555e+02
-1.629503228750000119e+02,4.793901819999999958e+01,-9.211999510000000555e+02
-1.629503228750000119e+02,4.765288538749999958e+01,-9.196999510000000555e+02
-1.629503228750000119e+02,4.765288538749999958e+01,-9.176999510000000555e+02
-1.629503228750000119e+02,4.822515101249999958e+01,-9.216999510000000555e+02
-1.623780572500000119e+02,4.221636194999999958e+01,-9.231999510000000555e+02
-1.623780572500000119e+02,4.193022913749999958e+01,-9.226999510000000555e+02
-1.623780572500000119e+02,4.193022913749999958e+01,-9.216999510000000555e+02
-1.623780572500000119e+02,4.193022913749999958e+01,-9.206999510000000555e+02
-1.623780572500000119e+02,4.221636194999999958e+01,-9.201999510000000555e+02
-1.623780572500000119e+02,4.278862757499999958e+01,-9.241999510000000555e+02
-1.623780572500000119e+02,4.250249476249999958e+01,-9.236999510000000555e+02
-1.623780572500000119e+02,4.250249476249999958e+01,-9.196999510000000555e+02
-1.623780572500000119e+02,4.278862757499999958e+01,-9.191999510000000555e+02
-1.623780572500000119e+02,4.336089319999999958e+01,-9.241999510000000555e+02
-1.623780572500000119e+02,4.307476038749999958e+01,-9.186999510000000555e+02
-1.623780572500000119e+02,4.307476038749999958e+01,-9.176999510000000555e+02
-1.623780572500000119e+02,4.393315882499999958e+01,-9.241999510000000555e+02
-1.623780572500000119e+02,4.450542444999999958e+01,-9.241999510000000555e+02
-1.623780572500000119e+02,4.507769007499999958e+01,-9.241999510000000555e+02
-1.623780572500000119e+02,4.564995569999999958e+01,-9.241999510000000555e+02
-1.623780572500000119e+02,4.622222132499999958e+01,-9.241999510000000555e+02
-1.623780572500000119e+02,4.679448694999999958e+01,-9.241999510000000555e+02
-1.623780572500000119e+02,4.708061976249999958e+01,-9.236999510000000555e+02
-1.623780572500000119e+02,4.736675257499999958e+01,-9.231999510000000555e+02
-1.623780572500000119e+02,4.708061976249999958e+01,-9.186999510000000555e+02
-1.623780572500000119e+02,4.736675257499999958e+01,-9.191999510000000555e+02
-1.626641900625000119e+02,4.736675257499999958e+01,-9.176999510000000555e+02
-1.623780572500000119e+02,4.708061976249999958e+01,-9.176999510000000555e+02
-1.626641900625000119e+02,4.793901819999999958e+01,-9.226999510000000555e+02
-1.623780572500000119e+02,4.793901819999999958e+01,-9.231999510000000555e+02
-1.623780572500000119e+02,4.765288538749999958e+01,-9.206999510000000555e+02
-1.623780572500000119e+02,4.793901819999999958e+01,-9.211999510000000555e+02
-1.623780572500000119e+02,4.765288538749999958e+01,-9.196999510000000555e+02
-1.626641900625000119e+02,4.851128382499999958e+01,-9.226999510000000555e+02
-1.623780572500000119e+02,4.851128382499999958e+01,-9.231999510000000555e+02
-1.626641900625000119e+02,4.851128382499999958e+01,-9.216999510000000555e+02
-1.623780572500000119e+02,4.851128382499999958e+01,-9.211999510000000555e+02
-1.623780572500000119e+02,4.879741663749999958e+01,-9.226999510000000555e+02
-1.623780572500000119e+02,4.879741663749999958e+01,-9.216999510000000555e+02
-1.620919244375000119e+02,4.164409632499999958e+01,-9.216999510000000555e+02
-1.618057916250000119e+02,4.164409632499999958e+01,-9.221999510000000555e+02
-1.618057916250000119e+02,4.135796351249999958e+01,-9.216999510000000555e+02
-1.618057916250000119e+02,4.164409632499999958e+01,-9.211999510000000555e+02
-1.618057916250000119e+02,4.221636194999999958e+01,-9.231999510000000555e+02
-1.618057916250000119e+02,4.193022913749999958e+01,-9.226999510000000555e+02
-1.618057916250000119e+02,4.193022913749999958e+01,-9.206999510000000555e+02
-1.618057916250000119e+02,4.221636194999999958e+01,-9.201999510000000555e+02
-1.620919244375000119e+02,4.278862757499999958e+01,-9.236999510000000555e+02
-1.618057916250000119e+02,4.278862757499999958e+01,-9.231999510000000555e+02
-1.618057916250000119e+02,4.250249476249999958e+01,-9.196999510000000555e+02
-1.618057916250000119e+02,4.278862757499999958e+01,-9.191999510000000555e+02
-1.620919244375000119e+02,4.336089319999999958e+01,-9.236999510000000555e+02
-1.618057916250000119e+02,4.336089319999999958e+01,-9.231999510000000555e+02
-1.620919244375000119e+02,4.336089319999999958e+01,-9.186999510000000555e+02
-1.618057916250000119e+02,4.336089319999999958e+01,-9.191999510000000555e+02
-1.620919244375000119e+02,4.336089319999999958e+01,-9.176999510000000555e+02
-1.620919244375000119e+02,4.393315882499999958e+01,-9.236999510000000555e+02
-1.618057916250000119e+02,4.393315882499999958e+01,-9.231999510000000555e+02
-1.618057916250000119e+02,4.364702601249999958e+01,-9.186999510000000555e+02
-1.618057916250000119e+02,4.364702601249999958e+01,-9.176999510000000555e+02
-1.620919244375000119e+02,4.450542444999999958e+01,-9.236999510000000555e+02
-1.618057916250000119e+02,4.450542444999999958e+01,-9.231999510000000555e+02
-1.620919244375000119e+02,4.507769007499999958e+01,-9.236999510000000555e+02
-1.618057916250000119e+02,4.507769007499999958e+01,-9.231999510000000555e+02
-1.620919244375000119e+02,4.564995569999999958e+01,-9.236999510000000555e+02
-1.618057916250000119e+02,4.564995569999999958e+01,-9.231999510000000555e+02
-1.620919244375000119e+02,4.564995569999999958e+01,-9.176999510000000555e+02
-1.618057916250000119e+02,4.536382288749999958e+01,-9.176999510000000555e+02
-1.618057916250000119e+02,4.564995569999999958e+01,-9.181999510000000555e+02
-1.620919244375000119e+02,4.622222132499999958e+01,-9.236999510000000555e+02
-1.618057916250000119e+02,4.622222132499999958e+01,-9.231999510000000555e+02
-1.620919244375000119e+02,4.622222132499999958e+01,-9.176999510000000555e+02
-1.618057916250000119e+02,4.622222132499999958e+01,-9.181999510000000555e+02
-1.620919244375000119e+02,4.679448694999999958e+01,-9.236999510000000555e+02
-1.618057916250000119e+02,4.679448694999999958e+01,-9.231999510000000555e+02
-1.620919244375000119e+02,4.679448694999999958e+01,-9.176999510000000555e+02
-1.618057916250000119e+02,4.679448694999999958e+01,-9.181999510000000555e+02
-1.618057916250000119e+02,4.736675257499999958e+01,-9.231999510000000555e+02
-1.618057916250000119e+02,4.708061976249999958e+01,-9.186999510000000555e+02
-1.618057916250000119e+02,4.736675257499999958e+01,-9.191999510000000555e+02
-1.618057916250000119e+02,4.793901819999999958e+01,-9.231999510000000555e+02
-1.618057916250000119e+02,4.765288538749999958e+01,-9.206999510000000555e+02
-1.618057916250000119e+02,4.793901819999999958e+01,-9.211999510000000555e+02
-1.618057916250000119e+02,4.765288538749999958e+01,-9.196999510000000555e+02
-1.618057916250000119e+02,4.851128382499999958e+01,-9.231999510000000555e+02
-1.618057916250000119e+02,4.851128382499999958e+01,-9.211999510000000555e+02
-1.618057916250000119e+02,4.879741663749999958e+01,-9.226999510000000555e+02
-1.618057916250000119e+02,4.879741663749999958e+01,-9.216999510000000555e+02
-1.612335260000000119e+02,4.164409632499999958e+01,-9.221999510000000555e+02
-1.612335260000000119e+02,4.135796351249999958e+01,-9.216999510000000555e+02
-1.612335260000000119e+02,4.164409632499999958e+01,-9.211999510000000555e+02
-1.612335260000000119e+02,4.221636194999999958e+01,-9.231999510000000555e+02
-1.612335260000000119e+02,4.193022913749999958e+01,-9.226999510000000555e+02
-1.615196588125000119e+02,4.221636194999999958e+01,-9.206999510000000555e+02
-1.612335260000000119e+02,4.221636194999999958e+01,-9.211999510000000555e+02
-1.612335260000000119e+02,4.278862757499999958e+01,-9.231999510000000555e+02
-1.612335260000000119e+02,4.250249476249999958e+01,-9.206999510000000555e+02
-1.612335260000000119e+02,4.250249476249999958e+01,-9.196999510000000555e+02
-1.612335260000000119e+02,4.278862757499999958e+01,-9.191999510000000555e+02
-1.612335260000000119e+02,4.336089319999999958e+01,-9.231999510000000555e+02
-1.612335260000000119e+02,4.336089319999999958e+01,-9.191999510000000555e+02
-1.612335260000000119e+02,4.393315882499999958e+01,-9.231999510000000555e+02
-1.615196588125000119e+02,4.393315882499999958e+01,-9.186999510000000555e+02
-1.612335260000000119e+02,4.393315882499999958e+01,-9.191999510000000555e+02
-1.615196588125000119e+02,4.393315882499999958e+01,-9.176999510000000555e+02
-1.612335260000000119e+02,4.450542444999999958e+01,-9.231999510000000555e+02
-1.615196588125000119e+02,4.450542444999999958e+01,-9.186999510000000555e+02
-1.612335260000000119e+02,4.450542444999999958e+01,-9.191999510000000555e+02
-1.615196588125000119e+02,4.450542444999999958e+01,-9.176999510000000555e+02
-1.612335260000000119e+02,4.507769007499999958e+01,-9.231999510000000555e+02
-1.615196588125000119e+02,4.507769007499999958e+01,-9.186999510000000555e+02
-1.612335260000000119e+02,4.507769007499999958e+01,-9.191999510000000555e+02
-1.615196588125000119e+02,4.507769007499999958e+01,-9.176999510000000555e+02
-1.612335260000000119e+02,4.564995569999999958e+01,-9.231999510000000555e+02
-1.615196588125000119e+02,4.564995569999999958e+01,-9.186999510000000555e+02
-1.612335260000000119e+02,4.564995569999999958e+01,-9.191999510000000555e+02
-1.612335260000000119e+02,4.622222132499999958e+01,-9.231999510000000555e+02
-1.615196588125000119e+02,4.622222132499999958e+01,-9.186999510000000555e+02
-1.612335260000000119e+02,4.622222132499999958e+01,-9.191999510000000555e+02
-1.612335260000000119e+02,4.679448694999999958e+01,-9.231999510000000555e+02
-1.615196588125000119e+02,4.679448694999999958e+01,-9.186999510000000555e+02
-1.612335260000000119e+02,4.679448694999999958e+01,-9.191999510000000555e+02
-1.612335260000000119e+02,4.736675257499999958e+01,-9.231999510000000555e+02
-1.612335260000000119e+02,4.736675257499999958e+01,-9.191999510000000555e+02
-1.612335260000000119e+02,4.793901819999999958e+01,-9.231999510000000555e+02
-1.612335260000000119e+02,4.765288538749999958e+01,-9.206999510000000555e+02
-1.612335260000000119e+02,4.793901819999999958e+01,-9.211999510000000555e+02
-1.612335260000000119e+02,4.765288538749999958e+01,-9.196999510000000555e+02
-1.612335260000000119e+02,4.822515101249999958e+01,-9.226999510000000555e+02
-1.615196588125000119e+02,4.851128382499999958e+01,-9.226999510000000555e+02
-1.612335260000000119e+02,4.851128382499999958e+01,-9.221999510000000555e+02
-1.612335260000000119e+02,4.851128382499999958e+01,-9.211999510000000555e+02
-1.612335260000000119e+02,4.879741663749999958e+01,-9.216999510000000555e+02
-1.609473931875000119e+02,4.164409632499999958e+01,-9.216999510000000555e+02
-1.609473931875000119e+02,4.221636194999999958e+01,-9.226999510000000555e+02
-1.606612603750000119e+02,4.221636194999999958e+01,-9.221999510000000555e+02
-1.606612603750000119e+02,4.193022913749999958e+01,-9.216999510000000555e+02
-1.606612603750000119e+02,4.221636194999999958e+01,-9.211999510000000555e+02
-1.609473931875000119e+02,4.278862757499999958e+01,-9.226999510000000555e+02
-1.606612603750000119e+02,4.278862757499999958e+01,-9.221999510000000555e+02
-1.606612603750000119e+02,4.250249476249999958e+01,-9.206999510000000555e+02
-1.609473931875000119e+02,4.278862757499999958e+01,-9.196999510000000555e+02
-1.606612603750000119e+02,4.278862757499999958e+01,-9.201999510000000555e+02
-1.609473931875000119e+02,4.336089319999999958e+01,-9.226999510000000555e+02
-1.606612603750000119e+02,4.336089319999999958e+01,-9.221999510000000555e+02
-1.606612603750000119e+02,4.307476038749999958e+01,-9.196999510000000555e+02
-1.606612603750000119e+02,4.336089319999999958e+01,-9.191999510000000555e+02
-1.609473931875000119e+02,4.393315882499999958e+01,-9.226999510000000555e+02
-1.606612603750000119e+02,4.393315882499999958e+01,-9.221999510000000555e+02
-1.606612603750000119e+02,4.393315882499999958e+01,-9.191999510000000555e+02
-1.609473931875000119e+02,4.450542444999999958e+01,-9.226999510000000555e+02
-1.606612603750000119e+02,4.450542444999999958e+01,-9.221999510000000555e+02
-1.606612603750000119e+02,4.450542444999999958e+01,-9.191999510000000555e+02
-1.609473931875000119e+02,4.507769007499999958e+01,-9.226999510000000555e+02
-1.606612603750000119e+02,4.507769007499999958e+01,-9.221999510000000555e+02
-1.606612603750000119e+02,4.507769007499999958e+01,-9.191999510000000555e+02
-1.609473931875000119e+02,4.564995569999999958e+01,-9.226999510000000555e+02
-1.606612603750000119e+02,4.564995569999999958e+01,-9.221999510000000555e+02
-1.606612603750000119e+02,4.564995569999999958e+01,-9.191999510000000555e+02
-1.609473931875000119e+02,4.622222132499999958e+01,-9.226999510000000555e+02
-1.606612603750000119e+02,4.622222132499999958e+01,-9.221999510000000555e+02
-1.606612603750000119e+02,4.622222132499999958e+01,-9.191999510000000555e+02
-1.609473931875000119e+02,4.679448694999999958e+01,-9.226999510000000555e+02
-1.606612603750000119e+02,4.679448694999999958e+01,-9.221999510000000555e+02
-1.606612603750000119e+02,4.679448694999999958e+01,-9.191999510000000555e+02
-1.609473931875000119e+02,4.736675257499999958e+01,-9.226999510000000555e+02
-1.606612603750000119e+02,4.736675257499999958e+01,-9.221999510000000555e+02
-1.609473931875000119e+02,4.736675257499999958e+01,-9.206999510000000555e+02
-1.606612603750000119e+02,4.708061976249999958e+01,-9.206999510000000555e+02
-1.606612603750000119e+02,4.736675257499999958e+01,-9.211999510000000555e+02
-1.609473931875000119e+02,4.736675257499999958e+01,-9.196999510000000555e+02
-1.606612603750000119e+02,4.708061976249999958e+01,-9.196999510000000555e+02
-1.609473931875000119e+02,4.793901819999999958e+01,-9.226999510000000555e+02
-1.606612603750000119e+02,4.793901819999999958e+01,-9.221999510000000555e+02
-1.606612603750000119e+02,4.793901819999999958e+01,-9.211999510000000555e+02
-1.606612603750000119e+02,4.851128382499999958e+01,-9.221999510000000555e+02
-1.606612603750000119e+02,4.851128382499999958e+01,-9.211999510000000555e+02
-1.606612603750000119e+02,4.879741663749999958e+01,-9.216999510000000555e+02
-1.600889947500000119e+02,4.221636194999999958e+01,-9.221999510000000555e+02
-1.600889947500000119e+02,4.193022913749999958e+01,-9.216999510000000555e+02
-1.600889947500000119e+02,4.221636194999999958e+01,-9.211999510000000555e+02
-1.600889947500000119e+02,4.278862757499999958e+01,-9.221999510000000555e+02
-1.603751275625000119e+02,4.278862757499999958e+01,-9.206999510000000555e+02
-1.600889947500000119e+02,4.278862757499999958e+01,-9.211999510000000555e+02
-1.600889947500000119e+02,4.336089319999999958e+01,-9.221999510000000555e+02
-1.603751275625000119e+02,4.336089319999999958e+01,-9.206999510000000555e+02
-1.600889947500000119e+02,4.336089319999999958e+01,-9.211999510000000555e+02
-1.603751275625000119e+02,4.336089319999999958e+01,-9.196999510000000555e+02
-1.600889947500000119e+02,4.393315882499999958e+01,-9.221999510000000555e+02
-1.600889947500000119e+02,4.364702601249999958e+01,-9.206999510000000555e+02
-1.600889947500000119e+02,4.393315882499999958e+01,-9.201999510000000555e+02
-1.603751275625000119e+02,4.393315882499999958e+01,-9.196999510000000555e+02
-1.600889947500000119e+02,4.450542444999999958e+01,-9.221999510000000555e+02
-1.600889947500000119e+02,4.421929163749999958e+01,-9.196999510000000555e+02
-1.600889947500000119e+02,4.450542444999999958e+01,-9.191999510000000555e+02
-1.600889947500000119e+02,4.507769007499999958e+01,-9.221999510000000555e+02
-1.600889947500000119e+02,4.507769007499999958e+01,-9.191999510000000555e+02
-1.600889947500000119e+02,4.564995569999999958e+01,-9.221999510000000555e+02
-1.600889947500000119e+02,4.564995569999999958e+01,-9.191999510000000555e+02
-1.600889947500000119e+02,4.622222132499999958e+01,-9.221999510000000555e+02
-1.600889947500000119e+02,4.622222132499999958e+01,-9.191999510000000555e+02
-1.600889947500000119e+02,4.679448694999999958e+01,-9.221999510000000555e+02
-1.600889947500000119e+02,4.679448694999999958e+01,-9.191999510000000555e+02
-1.600889947500000119e+02,4.736675257499999958e+01,-9.221999510000000555e+02
-1.600889947500000119e+02,4.708061976249999958e+01,-9.206999510000000555e+02
-1.600889947500000119e+02,4.736675257499999958e+01,-9.211999510000000555e+02
-1.600889947500000119e+02,4.708061976249999958e+01,-9.196999510000000555e+02
-1.600889947500000119e+02,4.793901819999999958e+01,-9.221999510000000555e+02
-1.600889947500000119e+02,4.793901819999999958e+01,-9.211999510000000555e+02
-1.600889947500000119e+02,4.822515101249999958e+01,-9.216999510000000555e+02
-1.603751275625000119e+02,4.851128382499999958e+01,-9.216999510000000555e+02
-1.595167291250000119e+02,4.221636194999999958e+01,-9.221999510000000555e+02
-1.595167291250000119e+02,4.193022913749999958e+01,-9.216999510000000555e+02
-1.595167291250000119e+02,4.221636194999999958e+01,-9.211999510000000555e+02
-1.595167291250000119e+02,4.278862757499999958e+01,-9.221999510000000555e+02
-1.595167291250000119e+02,4.278862757499999958e+01,-9.211999510000000555e+02
-1.595167291250000119e+02,4.336089319999999958e+01,-9.221999510000000555e+02
-1.595167291250000119e+02,4.336089319999999958e+01,-9.211999510000000555e+02
-1.595167291250000119e+02,4.393315882499999958e+01,-9.221999510000000555e+02
-1.598028619375000119e+02,4.393315882499999958e+01,-9.206999510000000555e+02
-1.595167291250000119e+02,4.393315882499999958e+01,-9.211999510000000555e+02
-1.595167291250000119e+02,4.450542444999999958e+01,-9.221999510000000555e+02
-1.598028619375000119e+02,4.450542444999999958e+01,-9.206999510000000555e+02
-1.595167291250000119e+02,4.450542444999999958e+01,-9.211999510000000555e+02
-1.598028619375000119e+02,4.450542444999999958e+01,-9.196999510000000555e+02
-1.595167291250000119e+02,4.507769007499999958e+01,-9.221999510000000555e+02
-1.598028619375000119e+02,4.507769007499999958e+01,-9.206999510000000555e+02
-1.595167291250000119e+02,4.507769007499999958e+01,-9.211999510000000555e+02
-1.598028619375000119e+02,4.507769007499999958e+01,-9.196999510000000555e+02
-1.595167291250000119e+02,4.564995569999999958e+01,-9.221999510000000555e+02
-1.598028619375000119e+02,4.564995569999999958e+01,-9.206999510000000555e+02
-1.595167291250000119e+02,4.564995569999999958e+01,-9.211999510000000555e+02
-1.598028619375000119e+02,4.564995569999999958e+01,-9.196999510000000555e+02
-1.595167291250000119e+02,4.622222132499999958e+01,-9.221999510000000555e+02
-1.598028619375000119e+02,4.622222132499999958e+01,-9.206999510000000555e+02
-1.595167291250000119e+02,4.622222132499999958e+01,-9.211999510000000555e+02
-1.598028619375000119e+02,4.622222132499999958e+01,-9.196999510000000555e+02
-1.595167291250000119e+02,4.679448694999999958e+01,-9.221999510000000555e+02
-1.598028619375000119e+02,4.679448694999999958e+01,-9.206999510000000555e+02
-1.595167291250000119e+02,4.679448694999999958e+01,-9.211999510000000555e+02
-1.598028619375000119e+02,4.679448694999999958e+01,-9.196999510000000555e+02
-1.595167291250000119e+02,4.736675257499999958e+01,-9.221999510000000555e+02
-1.595167291250000119e+02,4.736675257499999958e+01,-9.211999510000000555e+02
-1.595167291250000119e+02,4.765288538749999958e+01,-9.216999510000000555e+02
-1.598028619375000119e+02,4.793901819999999958e+01,-9.216999510000000555e+02
-1.592305963125000119e+02,4.221636194999999958e+01,-9.216999510000000555e+02
-1.592305963125000119e+02,4.278862757499999958e+01,-9.216999510000000555e+02
-1.592305963125000119e+02,4.336089319999999958e+01,-9.216999510000000555e+02
-1.592305963125000119e+02,4.393315882499999958e+01,-9.216999510000000555e+02
-1.592305963125000119e+02,4.450542444999999958e+01,-9.216999510000000555e+02
-1.589444635000000119e+02,4.507769007499999958e+01,-9.221999510000000555e+02
-1.589444635000000119e+02,4.479155726249999958e+01,-9.216999510000000555e+02
-1.589444635000000119e+02,4.507769007499999958e+01,-9.211999510000000555e+02
-1.589444635000000119e+02,4.564995569999999958e+01,-9.221999510000000555e+02
-1.589444635000000119e+02,4.564995569999999958e+01,-9.211999510000000555e+02
-1.589444635000000119e+02,4.622222132499999958e+01,-9.221999510000000555e+02
-1.589444635000000119e+02,4.622222132499999958e+01,-9.211999510000000555e+02
-1.589444635000000119e+02,4.679448694999999958e+01,-9.221999510000000555e+02
-1.589444635000000119e+02,4.679448694999999958e+01,-9.211999510000000555e+02
-1.589444635000000119e+02,4.708061976249999958e+01,-9.216999510000000555e+02
-1.592305963125000119e+02,4.736675257499999958e+01,-9.216999510000000555e+02
-1.586583306875000119e+02,4.507769007499999958e+01,-9.216999510000000555e+02
-1.586583306875000119e+02,4.564995569999999958e+01,-9.216999510000000555e+02
-1.586583306875000119e+02,4.622222132499999958e+01,-9.216999510000000555e+02
-1.586583306875000119e+02,4.679448694999999958e+01,-9.216999510000000555e+02
