-1.888867180000000019e+02,-1.892578120000000013e+02,-3.317500000000000000e+02
-1.885156240000000025e+02,-1.892578120000000013e+02,-3.330000000000000000e+02
-1.885156240000000025e+02,-1.896289060000000006e+02,-3.317500000000000000e+02
-1.885156240000000025e+02,-1.892578120000000013e+02,-3.305000000000000000e+02
-1.888867180000000019e+02,-1.885156240000000025e+02,-3.317500000000000000e+02
-1.885156240000000025e+02,-1.885156240000000025e+02,-3.330000000000000000e+02
-1.885156240000000025e+02,-1.885156240000000025e+02,-3.305000000000000000e+02
-1.888867180000000019e+02,-1.877734360000000038e+02,-3.317500000000000000e+02
-1.885156240000000025e+02,-1.877734360000000038e+02,-3.330000000000000000e+02
-1.885156240000000025e+02,-1.877734360000000038e+02,-3.305000000000000000e+02
-1.888867180000000019e+02,-1.870312480000000050e+02,-3.317500000000000000e+02
-1.885156240000000025e+02,-1.870312480000000050e+02,-3.330000000000000000e+02
-1.885156240000000025e+02,-1.870312480000000050e+02,-3.305000000000000000e+02
-1.885156240000000025e+02,-1.866601540000000057e+02,-3.317500000000000000e+02
-1.881445300000000032e+02,-1.892578120000000013e+02,-3.317500000000000000e+02
-1.881445300000000032e+02,-1.885156240000000025e+02,-3.317500000000000000e+02
-1.881445300000000032e+02,-1.877734360000000038e+02,-3.317500000000000000e+02
-1.877734360000000038e+02,-1.870312480000000050e+02,-3.330000000000000000e+02
-1.877734360000000038e+02,-1.874023420000000044e+02,-3.317500000000000000e+02
-1.877734360000000038e+02,-1.870312480000000050e+02,-3.305000000000000000e+02
-1.881445300000000032e+02,-1.862890600000000063e+02,-3.317500000000000000e+02
-1.877734360000000038e+02,-1.862890600000000063e+02,-3.330000000000000000e+02
-1.877734360000000038e+02,-1.862890600000000063e+02,-3.305000000000000000e+02
-1.881445300000000032e+02,-1.855468720000000076e+02,-3.317500000000000000e+02
-1.877734360000000038e+02,-1.855468720000000076e+02,-3.330000000000000000e+02
-1.877734360000000038e+02,-1.859179660000000069e+02,-3.292500000000000000e+02
-1.881445300000000032e+02,-1.855468720000000076e+02,-3.292500000000000000e+02
-1.881445300000000032e+02,-1.848046840000000088e+02,-3.317500000000000000e+02
-1.877734360000000038e+02,-1.848046840000000088e+02,-3.330000000000000000e+02
-1.877734360000000038e+02,-1.848046840000000088e+02,-3.305000000000000000e+02
-1.877734360000000038e+02,-1.851757780000000082e+02,-3.292500000000000000e+02
-1.881445300000000032e+02,-1.840624960000000101e+02,-3.317500000000000000e+02
-1.877734360000000038e+02,-1.840624960000000101e+02,-3.330000000000000000e+02
-1.877734360000000038e+02,-1.840624960000000101e+02,-3.305000000000000000e+02
-1.881445300000000032e+02,-1.833203080000000114e+02,-3.342500000000000000e+02
-1.877734360000000038e+02,-1.836914020000000107e+02,-3.342500000000000000e+02
-1.881445300000000032e+02,-1.833203080000000114e+02,-3.317500000000000000e+02
-1.877734360000000038e+02,-1.833203080000000114e+02,-3.305000000000000000e+02
-1.877734360000000038e+02,-1.829492140000000120e+02,-3.342500000000000000e+02
-1.877734360000000038e+02,-1.829492140000000120e+02,-3.317500000000000000e+02
-1.874023420000000044e+02,-1.877734360000000038e+02,-3.317500000000000000e+02
-1.870312480000000050e+02,-1.877734360000000038e+02,-3.330000000000000000e+02
-1.870312480000000050e+02,-1.881445300000000032e+02,-3.317500000000000000e+02
-1.870312480000000050e+02,-1.877734360000000038e+02,-3.305000000000000000e+02
-1.874023420000000044e+02,-1.870312480000000050e+02,-3.342500000000000000e+02
-1.870312480000000050e+02,-1.874023420000000044e+02,-3.342500000000000000e+02
-1.870312480000000050e+02,-1.870312480000000050e+02,-3.305000000000000000e+02
-1.874023420000000044e+02,-1.862890600000000063e+02,-3.342500000000000000e+02
-1.870312480000000050e+02,-1.866601540000000057e+02,-3.292500000000000000e+02
-1.874023420000000044e+02,-1.862890600000000063e+02,-3.292500000000000000e+02
-1.874023420000000044e+02,-1.855468720000000076e+02,-3.342500000000000000e+02
-1.874023420000000044e+02,-1.848046840000000088e+02,-3.342500000000000000e+02
-1.874023420000000044e+02,-1.848046840000000088e+02,-3.292500000000000000e+02
-1.874023420000000044e+02,-1.840624960000000101e+02,-3.342500000000000000e+02
-1.874023420000000044e+02,-1.840624960000000101e+02,-3.292500000000000000e+02
-1.870312480000000050e+02,-1.836914020000000107e+02,-3.292500000000000000e+02
-1.870312480000000050e+02,-1.833203080000000114e+02,-3.305000000000000000e+02
-1.874023420000000044e+02,-1.825781200000000126e+02,-3.317500000000000000e+02
-1.870312480000000050e+02,-1.825781200000000126e+02,-3.330000000000000000e+02
-1.870312480000000050e+02,-1.829492140000000120e+02,-3.342500000000000000e+02
-1.870312480000000050e+02,-1.825781200000000126e+02,-3.305000000000000000e+02
-1.870312480000000050e+02,-1.822070260000000133e+02,-3.317500000000000000e+02
-1.862890600000000063e+02,-1.877734360000000038e+02,-3.330000000000000000e+02
-1.862890600000000063e+02,-1.881445300000000032e+02,-3.317500000000000000e+02
-1.862890600000000063e+02,-1.877734360000000038e+02,-3.305000000000000000e+02
-1.862890600000000063e+02,-1.874023420000000044e+02,-3.342500000000000000e+02
-1.862890600000000063e+02,-1.870312480000000050e+02,-3.305000000000000000e+02
-1.862890600000000063e+02,-1.866601540000000057e+02,-3.292500000000000000e+02
-1.866601540000000057e+02,-1.833203080000000114e+02,-3.292500000000000000e+02
-1.866601540000000057e+02,-1.825781200000000126e+02,-3.342500000000000000e+02
-1.862890600000000063e+02,-1.829492140000000120e+02,-3.292500000000000000e+02
-1.862890600000000063e+02,-1.825781200000000126e+02,-3.305000000000000000e+02
-1.866601540000000057e+02,-1.818359320000000139e+02,-3.317500000000000000e+02
-1.862890600000000063e+02,-1.818359320000000139e+02,-3.330000000000000000e+02
-1.862890600000000063e+02,-1.822070260000000133e+02,-3.342500000000000000e+02
-1.862890600000000063e+02,-1.818359320000000139e+02,-3.305000000000000000e+02
-1.862890600000000063e+02,-1.814648379999999861e+02,-3.317500000000000000e+02
-1.859179660000000069e+02,-1.877734360000000038e+02,-3.342500000000000000e+02
-1.855468720000000076e+02,-1.881445300000000032e+02,-3.342500000000000000e+02
-1.855468720000000076e+02,-1.881445300000000032e+02,-3.317500000000000000e+02
-1.855468720000000076e+02,-1.877734360000000038e+02,-3.305000000000000000e+02
-1.855468720000000076e+02,-1.870312480000000050e+02,-3.305000000000000000e+02
-1.855468720000000076e+02,-1.866601540000000057e+02,-3.292500000000000000e+02
-1.855468720000000076e+02,-1.829492140000000120e+02,-3.292500000000000000e+02
-1.855468720000000076e+02,-1.825781200000000126e+02,-3.305000000000000000e+02
-1.855468720000000076e+02,-1.822070260000000133e+02,-3.342500000000000000e+02
-1.855468720000000076e+02,-1.818359320000000139e+02,-3.330000000000000000e+02
-1.855468720000000076e+02,-1.818359320000000139e+02,-3.305000000000000000e+02
-1.855468720000000076e+02,-1.814648379999999861e+02,-3.317500000000000000e+02
-1.851757780000000082e+02,-1.877734360000000038e+02,-3.317500000000000000e+02
-1.848046840000000088e+02,-1.881445300000000032e+02,-3.342500000000000000e+02
-1.848046840000000088e+02,-1.877734360000000038e+02,-3.330000000000000000e+02
-1.848046840000000088e+02,-1.874023420000000044e+02,-3.317500000000000000e+02
-1.848046840000000088e+02,-1.870312480000000050e+02,-3.305000000000000000e+02
-1.851757780000000082e+02,-1.862890600000000063e+02,-3.292500000000000000e+02
-1.848046840000000088e+02,-1.862890600000000063e+02,-3.305000000000000000e+02
-1.848046840000000088e+02,-1.859179660000000069e+02,-3.292500000000000000e+02
-1.851757780000000082e+02,-1.833203080000000114e+02,-3.292500000000000000e+02
-1.848046840000000088e+02,-1.836914020000000107e+02,-3.292500000000000000e+02
-1.848046840000000088e+02,-1.833203080000000114e+02,-3.305000000000000000e+02
-1.848046840000000088e+02,-1.825781200000000126e+02,-3.305000000000000000e+02
-1.851757780000000082e+02,-1.818359320000000139e+02,-3.317500000000000000e+02
-1.848046840000000088e+02,-1.822070260000000133e+02,-3.317500000000000000e+02
-1.848046840000000088e+02,-1.822070260000000133e+02,-3.342500000000000000e+02
-1.844335900000000095e+02,-1.877734360000000038e+02,-3.342500000000000000e+02
-1.840624960000000101e+02,-1.874023420000000044e+02,-3.342500000000000000e+02
-1.840624960000000101e+02,-1.874023420000000044e+02,-3.317500000000000000e+02
-1.840624960000000101e+02,-1.870312480000000050e+02,-3.305000000000000000e+02
-1.840624960000000101e+02,-1.862890600000000063e+02,-3.305000000000000000e+02
-1.844335900000000095e+02,-1.855468720000000076e+02,-3.292500000000000000e+02
-1.840624960000000101e+02,-1.855468720000000076e+02,-3.305000000000000000e+02
-1.844335900000000095e+02,-1.848046840000000088e+02,-3.292500000000000000e+02
-1.840624960000000101e+02,-1.848046840000000088e+02,-3.305000000000000000e+02
-1.844335900000000095e+02,-1.840624960000000101e+02,-3.292500000000000000e+02
-1.840624960000000101e+02,-1.840624960000000101e+02,-3.305000000000000000e+02
-1.840624960000000101e+02,-1.833203080000000114e+02,-3.305000000000000000e+02
-1.844335900000000095e+02,-1.825781200000000126e+02,-3.342500000000000000e+02
-1.844335900000000095e+02,-1.825781200000000126e+02,-3.317500000000000000e+02
-1.840624960000000101e+02,-1.829492140000000120e+02,-3.317500000000000000e+02
-1.840624960000000101e+02,-1.829492140000000120e+02,-3.342500000000000000e+02
-1.836914020000000107e+02,-1.870312480000000050e+02,-3.317500000000000000e+02
-1.836914020000000107e+02,-1.870312480000000050e+02,-3.342500000000000000e+02
-1.833203080000000114e+02,-1.862890600000000063e+02,-3.330000000000000000e+02
-1.833203080000000114e+02,-1.866601540000000057e+02,-3.317500000000000000e+02
-1.836914020000000107e+02,-1.862890600000000063e+02,-3.342500000000000000e+02
-1.833203080000000114e+02,-1.862890600000000063e+02,-3.305000000000000000e+02
-1.833203080000000114e+02,-1.855468720000000076e+02,-3.330000000000000000e+02
-1.836914020000000107e+02,-1.855468720000000076e+02,-3.342500000000000000e+02
-1.833203080000000114e+02,-1.855468720000000076e+02,-3.305000000000000000e+02
-1.833203080000000114e+02,-1.848046840000000088e+02,-3.330000000000000000e+02
-1.836914020000000107e+02,-1.848046840000000088e+02,-3.342500000000000000e+02
-1.833203080000000114e+02,-1.848046840000000088e+02,-3.305000000000000000e+02
-1.833203080000000114e+02,-1.840624960000000101e+02,-3.330000000000000000e+02
-1.836914020000000107e+02,-1.840624960000000101e+02,-3.342500000000000000e+02
-1.833203080000000114e+02,-1.840624960000000101e+02,-3.305000000000000000e+02
-1.833203080000000114e+02,-1.836914020000000107e+02,-3.317500000000000000e+02
-1.836914020000000107e+02,-1.833203080000000114e+02,-3.317500000000000000e+02
-1.836914020000000107e+02,-1.833203080000000114e+02,-3.342500000000000000e+02
-1.829492140000000120e+02,-1.862890600000000063e+02,-3.317500000000000000e+02
-1.829492140000000120e+02,-1.855468720000000076e+02,-3.317500000000000000e+02
-1.829492140000000120e+02,-1.848046840000000088e+02,-3.317500000000000000e+02
-1.829492140000000120e+02,-1.840624960000000101e+02,-3.317500000000000000e+02
