-2.225703125000000000e+02,-2.157031250000000000e+02,-3.550000000000000000e+02
-2.221406250000000000e+02,-2.157031250000000000e+02,-3.562500000000000000e+02
-2.221406250000000000e+02,-2.161328125000000000e+02,-3.550000000000000000e+02
-2.221406250000000000e+02,-2.161328125000000000e+02,-3.525000000000000000e+02
-2.225703125000000000e+02,-2.157031250000000000e+02,-3.525000000000000000e+02
-2.221406250000000000e+02,-2.157031250000000000e+02,-3.512500000000000000e+02
-2.225703125000000000e+02,-2.148437500000000000e+02,-3.575000000000000000e+02
-2.221406250000000000e+02,-2.152734375000000000e+02,-3.575000000000000000e+02
-2.225703125000000000e+02,-2.148437500000000000e+02,-3.550000000000000000e+02
-2.225703125000000000e+02,-2.148437500000000000e+02,-3.525000000000000000e+02
-2.221406250000000000e+02,-2.148437500000000000e+02,-3.512500000000000000e+02
-2.221406250000000000e+02,-2.144140625000000000e+02,-3.575000000000000000e+02
-2.225703125000000000e+02,-2.139843750000000000e+02,-3.550000000000000000e+02
-2.221406250000000000e+02,-2.139843750000000000e+02,-3.562500000000000000e+02
-2.225703125000000000e+02,-2.139843750000000000e+02,-3.525000000000000000e+02
-2.221406250000000000e+02,-2.139843750000000000e+02,-3.512500000000000000e+02
-2.225703125000000000e+02,-2.131250000000000000e+02,-3.550000000000000000e+02
-2.221406250000000000e+02,-2.131250000000000000e+02,-3.562500000000000000e+02
-2.225703125000000000e+02,-2.131250000000000000e+02,-3.525000000000000000e+02
-2.221406250000000000e+02,-2.131250000000000000e+02,-3.512500000000000000e+02
-2.221406250000000000e+02,-2.126953125000000000e+02,-3.550000000000000000e+02
-2.221406250000000000e+02,-2.126953125000000000e+02,-3.525000000000000000e+02
-2.217109375000000000e+02,-2.174218750000000000e+02,-3.500000000000000000e+02
-2.212812500000000000e+02,-2.174218750000000000e+02,-3.512500000000000000e+02
-2.212812500000000000e+02,-2.178515625000000000e+02,-3.500000000000000000e+02
-2.212812500000000000e+02,-2.174218750000000000e+02,-3.487500000000000000e+02
-2.217109375000000000e+02,-2.165625000000000000e+02,-3.575000000000000000e+02
-2.212812500000000000e+02,-2.169921875000000000e+02,-3.550000000000000000e+02
-2.217109375000000000e+02,-2.165625000000000000e+02,-3.550000000000000000e+02
-2.212812500000000000e+02,-2.169921875000000000e+02,-3.575000000000000000e+02
-2.212812500000000000e+02,-2.169921875000000000e+02,-3.525000000000000000e+02
-2.217109375000000000e+02,-2.165625000000000000e+02,-3.525000000000000000e+02
-2.217109375000000000e+02,-2.165625000000000000e+02,-3.500000000000000000e+02
-2.212812500000000000e+02,-2.165625000000000000e+02,-3.487500000000000000e+02
-2.217109375000000000e+02,-2.157031250000000000e+02,-3.575000000000000000e+02
-2.217109375000000000e+02,-2.157031250000000000e+02,-3.500000000000000000e+02
-2.212812500000000000e+02,-2.157031250000000000e+02,-3.487500000000000000e+02
-2.217109375000000000e+02,-2.148437500000000000e+02,-3.500000000000000000e+02
-2.212812500000000000e+02,-2.148437500000000000e+02,-3.487500000000000000e+02
-2.217109375000000000e+02,-2.139843750000000000e+02,-3.575000000000000000e+02
-2.217109375000000000e+02,-2.139843750000000000e+02,-3.500000000000000000e+02
-2.212812500000000000e+02,-2.139843750000000000e+02,-3.487500000000000000e+02
-2.212812500000000000e+02,-2.135546875000000000e+02,-3.575000000000000000e+02
-2.212812500000000000e+02,-2.131250000000000000e+02,-3.562500000000000000e+02
-2.217109375000000000e+02,-2.131250000000000000e+02,-3.500000000000000000e+02
-2.212812500000000000e+02,-2.131250000000000000e+02,-3.487500000000000000e+02
-2.217109375000000000e+02,-2.122656250000000000e+02,-3.550000000000000000e+02
-2.212812500000000000e+02,-2.122656250000000000e+02,-3.562500000000000000e+02
-2.217109375000000000e+02,-2.122656250000000000e+02,-3.525000000000000000e+02
-2.212812500000000000e+02,-2.122656250000000000e+02,-3.512500000000000000e+02
-2.212812500000000000e+02,-2.126953125000000000e+02,-3.500000000000000000e+02
-2.212812500000000000e+02,-2.118359375000000000e+02,-3.550000000000000000e+02
-2.212812500000000000e+02,-2.118359375000000000e+02,-3.525000000000000000e+02
-2.208515625000000000e+02,-2.182812500000000000e+02,-3.500000000000000000e+02
-2.204218750000000000e+02,-2.182812500000000000e+02,-3.512500000000000000e+02
-2.204218750000000000e+02,-2.187109375000000000e+02,-3.500000000000000000e+02
-2.204218750000000000e+02,-2.182812500000000000e+02,-3.487500000000000000e+02
-2.208515625000000000e+02,-2.174218750000000000e+02,-3.575000000000000000e+02
-2.204218750000000000e+02,-2.178515625000000000e+02,-3.550000000000000000e+02
-2.208515625000000000e+02,-2.174218750000000000e+02,-3.550000000000000000e+02
-2.204218750000000000e+02,-2.178515625000000000e+02,-3.575000000000000000e+02
-2.204218750000000000e+02,-2.178515625000000000e+02,-3.525000000000000000e+02
-2.208515625000000000e+02,-2.174218750000000000e+02,-3.525000000000000000e+02
-2.204218750000000000e+02,-2.174218750000000000e+02,-3.487500000000000000e+02
-2.204218750000000000e+02,-2.165625000000000000e+02,-3.487500000000000000e+02
-2.204218750000000000e+02,-2.157031250000000000e+02,-3.487500000000000000e+02
-2.204218750000000000e+02,-2.152734375000000000e+02,-3.475000000000000000e+02
-2.208515625000000000e+02,-2.148437500000000000e+02,-3.475000000000000000e+02
-2.204218750000000000e+02,-2.144140625000000000e+02,-3.475000000000000000e+02
-2.204218750000000000e+02,-2.139843750000000000e+02,-3.487500000000000000e+02
-2.208515625000000000e+02,-2.131250000000000000e+02,-3.575000000000000000e+02
-2.204218750000000000e+02,-2.131250000000000000e+02,-3.487500000000000000e+02
-2.204218750000000000e+02,-2.126953125000000000e+02,-3.575000000000000000e+02
-2.204218750000000000e+02,-2.122656250000000000e+02,-3.562500000000000000e+02
-2.208515625000000000e+02,-2.122656250000000000e+02,-3.500000000000000000e+02
-2.204218750000000000e+02,-2.122656250000000000e+02,-3.487500000000000000e+02
-2.204218750000000000e+02,-2.118359375000000000e+02,-3.550000000000000000e+02
-2.208515625000000000e+02,-2.114062500000000000e+02,-3.525000000000000000e+02
-2.204218750000000000e+02,-2.114062500000000000e+02,-3.537500000000000000e+02
-2.204218750000000000e+02,-2.114062500000000000e+02,-3.512500000000000000e+02
-2.204218750000000000e+02,-2.118359375000000000e+02,-3.500000000000000000e+02
-2.204218750000000000e+02,-2.109765625000000000e+02,-3.525000000000000000e+02
-2.199921875000000000e+02,-2.182812500000000000e+02,-3.575000000000000000e+02
-2.195625000000000000e+02,-2.187109375000000000e+02,-3.550000000000000000e+02
-2.199921875000000000e+02,-2.182812500000000000e+02,-3.550000000000000000e+02
-2.195625000000000000e+02,-2.187109375000000000e+02,-3.575000000000000000e+02
-2.195625000000000000e+02,-2.187109375000000000e+02,-3.525000000000000000e+02
-2.199921875000000000e+02,-2.182812500000000000e+02,-3.525000000000000000e+02
-2.195625000000000000e+02,-2.187109375000000000e+02,-3.500000000000000000e+02
-2.195625000000000000e+02,-2.182812500000000000e+02,-3.487500000000000000e+02
-2.195625000000000000e+02,-2.174218750000000000e+02,-3.487500000000000000e+02
-2.195625000000000000e+02,-2.169921875000000000e+02,-3.475000000000000000e+02
-2.199921875000000000e+02,-2.165625000000000000e+02,-3.475000000000000000e+02
-2.199921875000000000e+02,-2.157031250000000000e+02,-3.475000000000000000e+02
-2.199921875000000000e+02,-2.139843750000000000e+02,-3.475000000000000000e+02
-2.195625000000000000e+02,-2.135546875000000000e+02,-3.475000000000000000e+02
-2.195625000000000000e+02,-2.131250000000000000e+02,-3.487500000000000000e+02
-2.199921875000000000e+02,-2.122656250000000000e+02,-3.575000000000000000e+02
-2.195625000000000000e+02,-2.122656250000000000e+02,-3.487500000000000000e+02
-2.199921875000000000e+02,-2.114062500000000000e+02,-3.550000000000000000e+02
-2.195625000000000000e+02,-2.114062500000000000e+02,-3.562500000000000000e+02
-2.195625000000000000e+02,-2.118359375000000000e+02,-3.575000000000000000e+02
-2.199921875000000000e+02,-2.114062500000000000e+02,-3.500000000000000000e+02
-2.195625000000000000e+02,-2.114062500000000000e+02,-3.487500000000000000e+02
-2.195625000000000000e+02,-2.109765625000000000e+02,-3.550000000000000000e+02
-2.195625000000000000e+02,-2.109765625000000000e+02,-3.525000000000000000e+02
-2.195625000000000000e+02,-2.109765625000000000e+02,-3.500000000000000000e+02
-2.187031250000000000e+02,-2.195703125000000000e+02,-3.575000000000000000e+02
-2.187031250000000000e+02,-2.191406250000000000e+02,-3.562500000000000000e+02
-2.191328125000000000e+02,-2.191406250000000000e+02,-3.575000000000000000e+02
-2.191328125000000000e+02,-2.191406250000000000e+02,-3.500000000000000000e+02
-2.187031250000000000e+02,-2.191406250000000000e+02,-3.512500000000000000e+02
-2.187031250000000000e+02,-2.195703125000000000e+02,-3.500000000000000000e+02
-2.187031250000000000e+02,-2.191406250000000000e+02,-3.487500000000000000e+02
-2.187031250000000000e+02,-2.187109375000000000e+02,-3.550000000000000000e+02
-2.187031250000000000e+02,-2.187109375000000000e+02,-3.525000000000000000e+02
-2.187031250000000000e+02,-2.182812500000000000e+02,-3.487500000000000000e+02
-2.187031250000000000e+02,-2.178515625000000000e+02,-3.475000000000000000e+02
-2.191328125000000000e+02,-2.174218750000000000e+02,-3.475000000000000000e+02
-2.191328125000000000e+02,-2.131250000000000000e+02,-3.475000000000000000e+02
-2.187031250000000000e+02,-2.126953125000000000e+02,-3.475000000000000000e+02
-2.187031250000000000e+02,-2.122656250000000000e+02,-3.487500000000000000e+02
-2.191328125000000000e+02,-2.114062500000000000e+02,-3.575000000000000000e+02
-2.187031250000000000e+02,-2.114062500000000000e+02,-3.487500000000000000e+02
-2.191328125000000000e+02,-2.105468750000000000e+02,-3.550000000000000000e+02
-2.187031250000000000e+02,-2.105468750000000000e+02,-3.562500000000000000e+02
-2.187031250000000000e+02,-2.109765625000000000e+02,-3.575000000000000000e+02
-2.191328125000000000e+02,-2.105468750000000000e+02,-3.525000000000000000e+02
-2.187031250000000000e+02,-2.105468750000000000e+02,-3.512500000000000000e+02
-2.187031250000000000e+02,-2.109765625000000000e+02,-3.500000000000000000e+02
-2.187031250000000000e+02,-2.101171875000000000e+02,-3.550000000000000000e+02
-2.187031250000000000e+02,-2.101171875000000000e+02,-3.525000000000000000e+02
-2.178437500000000000e+02,-2.195703125000000000e+02,-3.550000000000000000e+02
-2.182734375000000000e+02,-2.191406250000000000e+02,-3.550000000000000000e+02
-2.178437500000000000e+02,-2.195703125000000000e+02,-3.575000000000000000e+02
-2.178437500000000000e+02,-2.191406250000000000e+02,-3.537500000000000000e+02
-2.178437500000000000e+02,-2.191406250000000000e+02,-3.512500000000000000e+02
-2.178437500000000000e+02,-2.195703125000000000e+02,-3.500000000000000000e+02
-2.178437500000000000e+02,-2.191406250000000000e+02,-3.487500000000000000e+02
-2.178437500000000000e+02,-2.187109375000000000e+02,-3.525000000000000000e+02
-2.178437500000000000e+02,-2.187109375000000000e+02,-3.475000000000000000e+02
-2.182734375000000000e+02,-2.182812500000000000e+02,-3.475000000000000000e+02
-2.182734375000000000e+02,-2.122656250000000000e+02,-3.475000000000000000e+02
-2.178437500000000000e+02,-2.118359375000000000e+02,-3.475000000000000000e+02
-2.178437500000000000e+02,-2.114062500000000000e+02,-3.487500000000000000e+02
-2.182734375000000000e+02,-2.105468750000000000e+02,-3.575000000000000000e+02
-2.182734375000000000e+02,-2.105468750000000000e+02,-3.500000000000000000e+02
-2.178437500000000000e+02,-2.105468750000000000e+02,-3.487500000000000000e+02
-2.178437500000000000e+02,-2.101171875000000000e+02,-3.575000000000000000e+02
-2.178437500000000000e+02,-2.101171875000000000e+02,-3.550000000000000000e+02
-2.182734375000000000e+02,-2.096875000000000000e+02,-3.525000000000000000e+02
-2.178437500000000000e+02,-2.096875000000000000e+02,-3.537500000000000000e+02
-2.178437500000000000e+02,-2.096875000000000000e+02,-3.512500000000000000e+02
-2.178437500000000000e+02,-2.101171875000000000e+02,-3.500000000000000000e+02
-2.178437500000000000e+02,-2.092578125000000000e+02,-3.525000000000000000e+02
-2.174140625000000000e+02,-2.191406250000000000e+02,-3.550000000000000000e+02
-2.169843750000000000e+02,-2.195703125000000000e+02,-3.575000000000000000e+02
-2.169843750000000000e+02,-2.191406250000000000e+02,-3.562500000000000000e+02
-2.169843750000000000e+02,-2.191406250000000000e+02,-3.512500000000000000e+02
-2.169843750000000000e+02,-2.195703125000000000e+02,-3.500000000000000000e+02
-2.169843750000000000e+02,-2.191406250000000000e+02,-3.487500000000000000e+02
-2.169843750000000000e+02,-2.187109375000000000e+02,-3.550000000000000000e+02
-2.169843750000000000e+02,-2.187109375000000000e+02,-3.525000000000000000e+02
-2.169843750000000000e+02,-2.187109375000000000e+02,-3.475000000000000000e+02
-2.169843750000000000e+02,-2.118359375000000000e+02,-3.475000000000000000e+02
-2.169843750000000000e+02,-2.114062500000000000e+02,-3.487500000000000000e+02
-2.169843750000000000e+02,-2.105468750000000000e+02,-3.487500000000000000e+02
-2.174140625000000000e+02,-2.096875000000000000e+02,-3.550000000000000000e+02
-2.169843750000000000e+02,-2.096875000000000000e+02,-3.562500000000000000e+02
-2.169843750000000000e+02,-2.101171875000000000e+02,-3.575000000000000000e+02
-2.169843750000000000e+02,-2.101171875000000000e+02,-3.500000000000000000e+02
-2.169843750000000000e+02,-2.096875000000000000e+02,-3.512500000000000000e+02
-2.169843750000000000e+02,-2.092578125000000000e+02,-3.550000000000000000e+02
-2.169843750000000000e+02,-2.092578125000000000e+02,-3.525000000000000000e+02
-2.161250000000000000e+02,-2.195703125000000000e+02,-3.575000000000000000e+02
-2.161250000000000000e+02,-2.191406250000000000e+02,-3.562500000000000000e+02
-2.165546875000000000e+02,-2.191406250000000000e+02,-3.500000000000000000e+02
-2.161250000000000000e+02,-2.187109375000000000e+02,-3.550000000000000000e+02
-2.161250000000000000e+02,-2.187109375000000000e+02,-3.525000000000000000e+02
-2.161250000000000000e+02,-2.187109375000000000e+02,-3.500000000000000000e+02
-2.161250000000000000e+02,-2.187109375000000000e+02,-3.475000000000000000e+02
-2.161250000000000000e+02,-2.118359375000000000e+02,-3.475000000000000000e+02
-2.161250000000000000e+02,-2.114062500000000000e+02,-3.487500000000000000e+02
-2.161250000000000000e+02,-2.105468750000000000e+02,-3.487500000000000000e+02
-2.161250000000000000e+02,-2.101171875000000000e+02,-3.575000000000000000e+02
-2.161250000000000000e+02,-2.096875000000000000e+02,-3.562500000000000000e+02
-2.165546875000000000e+02,-2.096875000000000000e+02,-3.500000000000000000e+02
-2.161250000000000000e+02,-2.096875000000000000e+02,-3.487500000000000000e+02
-2.161250000000000000e+02,-2.092578125000000000e+02,-3.550000000000000000e+02
-2.161250000000000000e+02,-2.092578125000000000e+02,-3.525000000000000000e+02
-2.161250000000000000e+02,-2.092578125000000000e+02,-3.500000000000000000e+02
-2.152656250000000000e+02,-2.195703125000000000e+02,-3.575000000000000000e+02
-2.152656250000000000e+02,-2.191406250000000000e+02,-3.562500000000000000e+02
-2.152656250000000000e+02,-2.187109375000000000e+02,-3.550000000000000000e+02
-2.152656250000000000e+02,-2.187109375000000000e+02,-3.525000000000000000e+02
-2.152656250000000000e+02,-2.187109375000000000e+02,-3.500000000000000000e+02
-2.152656250000000000e+02,-2.187109375000000000e+02,-3.475000000000000000e+02
-2.152656250000000000e+02,-2.118359375000000000e+02,-3.475000000000000000e+02
-2.152656250000000000e+02,-2.114062500000000000e+02,-3.487500000000000000e+02
-2.152656250000000000e+02,-2.109765625000000000e+02,-3.575000000000000000e+02
-2.156953125000000000e+02,-2.105468750000000000e+02,-3.575000000000000000e+02
-2.152656250000000000e+02,-2.105468750000000000e+02,-3.562500000000000000e+02
-2.152656250000000000e+02,-2.105468750000000000e+02,-3.487500000000000000e+02
-2.152656250000000000e+02,-2.096875000000000000e+02,-3.562500000000000000e+02
-2.152656250000000000e+02,-2.096875000000000000e+02,-3.487500000000000000e+02
-2.152656250000000000e+02,-2.092578125000000000e+02,-3.550000000000000000e+02
-2.152656250000000000e+02,-2.092578125000000000e+02,-3.525000000000000000e+02
-2.152656250000000000e+02,-2.092578125000000000e+02,-3.500000000000000000e+02
-2.148359375000000000e+02,-2.191406250000000000e+02,-3.575000000000000000e+02
-2.148359375000000000e+02,-2.182812500000000000e+02,-3.550000000000000000e+02
-2.144062500000000000e+02,-2.187109375000000000e+02,-3.575000000000000000e+02
-2.144062500000000000e+02,-2.182812500000000000e+02,-3.562500000000000000e+02
-2.144062500000000000e+02,-2.182812500000000000e+02,-3.537500000000000000e+02
-2.144062500000000000e+02,-2.187109375000000000e+02,-3.525000000000000000e+02
-2.148359375000000000e+02,-2.182812500000000000e+02,-3.500000000000000000e+02
-2.144062500000000000e+02,-2.182812500000000000e+02,-3.512500000000000000e+02
-2.148359375000000000e+02,-2.182812500000000000e+02,-3.475000000000000000e+02
-2.144062500000000000e+02,-2.178515625000000000e+02,-3.550000000000000000e+02
-2.144062500000000000e+02,-2.178515625000000000e+02,-3.500000000000000000e+02
-2.144062500000000000e+02,-2.178515625000000000e+02,-3.475000000000000000e+02
-2.144062500000000000e+02,-2.118359375000000000e+02,-3.475000000000000000e+02
-2.144062500000000000e+02,-2.114062500000000000e+02,-3.487500000000000000e+02
-2.148359375000000000e+02,-2.105468750000000000e+02,-3.575000000000000000e+02
-2.144062500000000000e+02,-2.105468750000000000e+02,-3.487500000000000000e+02
-2.144062500000000000e+02,-2.101171875000000000e+02,-3.575000000000000000e+02
-2.144062500000000000e+02,-2.096875000000000000e+02,-3.562500000000000000e+02
-2.148359375000000000e+02,-2.096875000000000000e+02,-3.500000000000000000e+02
-2.144062500000000000e+02,-2.101171875000000000e+02,-3.500000000000000000e+02
-2.144062500000000000e+02,-2.096875000000000000e+02,-3.512500000000000000e+02
-2.144062500000000000e+02,-2.092578125000000000e+02,-3.550000000000000000e+02
-2.144062500000000000e+02,-2.092578125000000000e+02,-3.525000000000000000e+02
-2.139765625000000000e+02,-2.182812500000000000e+02,-3.575000000000000000e+02
-2.139765625000000000e+02,-2.182812500000000000e+02,-3.525000000000000000e+02
-2.135468750000000000e+02,-2.178515625000000000e+02,-3.575000000000000000e+02
-2.135468750000000000e+02,-2.178515625000000000e+02,-3.550000000000000000e+02
-2.135468750000000000e+02,-2.178515625000000000e+02,-3.525000000000000000e+02
-2.139765625000000000e+02,-2.174218750000000000e+02,-3.500000000000000000e+02
-2.135468750000000000e+02,-2.174218750000000000e+02,-3.512500000000000000e+02
-2.139765625000000000e+02,-2.174218750000000000e+02,-3.475000000000000000e+02
-2.135468750000000000e+02,-2.169921875000000000e+02,-3.500000000000000000e+02
-2.135468750000000000e+02,-2.169921875000000000e+02,-3.475000000000000000e+02
-2.139765625000000000e+02,-2.139843750000000000e+02,-3.475000000000000000e+02
-2.135468750000000000e+02,-2.144140625000000000e+02,-3.475000000000000000e+02
-2.135468750000000000e+02,-2.139843750000000000e+02,-3.487500000000000000e+02
-2.139765625000000000e+02,-2.131250000000000000e+02,-3.475000000000000000e+02
-2.135468750000000000e+02,-2.131250000000000000e+02,-3.487500000000000000e+02
-2.139765625000000000e+02,-2.122656250000000000e+02,-3.475000000000000000e+02
-2.135468750000000000e+02,-2.122656250000000000e+02,-3.487500000000000000e+02
-2.135468750000000000e+02,-2.114062500000000000e+02,-3.487500000000000000e+02
-2.135468750000000000e+02,-2.109765625000000000e+02,-3.575000000000000000e+02
-2.139765625000000000e+02,-2.105468750000000000e+02,-3.575000000000000000e+02
-2.135468750000000000e+02,-2.105468750000000000e+02,-3.562500000000000000e+02
-2.135468750000000000e+02,-2.105468750000000000e+02,-3.487500000000000000e+02
-2.139765625000000000e+02,-2.096875000000000000e+02,-3.550000000000000000e+02
-2.135468750000000000e+02,-2.101171875000000000e+02,-3.550000000000000000e+02
-2.139765625000000000e+02,-2.096875000000000000e+02,-3.525000000000000000e+02
-2.135468750000000000e+02,-2.101171875000000000e+02,-3.525000000000000000e+02
-2.135468750000000000e+02,-2.101171875000000000e+02,-3.500000000000000000e+02
-2.131171875000000000e+02,-2.174218750000000000e+02,-3.550000000000000000e+02
-2.131171875000000000e+02,-2.174218750000000000e+02,-3.575000000000000000e+02
-2.131171875000000000e+02,-2.174218750000000000e+02,-3.525000000000000000e+02
-2.126875000000000000e+02,-2.169921875000000000e+02,-3.575000000000000000e+02
-2.126875000000000000e+02,-2.165625000000000000e+02,-3.562500000000000000e+02
-2.131171875000000000e+02,-2.165625000000000000e+02,-3.550000000000000000e+02
-2.131171875000000000e+02,-2.165625000000000000e+02,-3.525000000000000000e+02
-2.131171875000000000e+02,-2.165625000000000000e+02,-3.500000000000000000e+02
-2.131171875000000000e+02,-2.165625000000000000e+02,-3.475000000000000000e+02
-2.126875000000000000e+02,-2.161328125000000000e+02,-3.550000000000000000e+02
-2.131171875000000000e+02,-2.157031250000000000e+02,-3.575000000000000000e+02
-2.126875000000000000e+02,-2.157031250000000000e+02,-3.562500000000000000e+02
-2.126875000000000000e+02,-2.161328125000000000e+02,-3.575000000000000000e+02
-2.126875000000000000e+02,-2.161328125000000000e+02,-3.525000000000000000e+02
-2.126875000000000000e+02,-2.161328125000000000e+02,-3.500000000000000000e+02
-2.126875000000000000e+02,-2.157031250000000000e+02,-3.487500000000000000e+02
-2.131171875000000000e+02,-2.157031250000000000e+02,-3.475000000000000000e+02
-2.126875000000000000e+02,-2.148437500000000000e+02,-3.562500000000000000e+02
-2.131171875000000000e+02,-2.148437500000000000e+02,-3.575000000000000000e+02
-2.131171875000000000e+02,-2.148437500000000000e+02,-3.475000000000000000e+02
-2.126875000000000000e+02,-2.148437500000000000e+02,-3.487500000000000000e+02
-2.126875000000000000e+02,-2.144140625000000000e+02,-3.575000000000000000e+02
-2.126875000000000000e+02,-2.139843750000000000e+02,-3.487500000000000000e+02
-2.126875000000000000e+02,-2.131250000000000000e+02,-3.487500000000000000e+02
-2.126875000000000000e+02,-2.126953125000000000e+02,-3.575000000000000000e+02
-2.131171875000000000e+02,-2.122656250000000000e+02,-3.575000000000000000e+02
-2.126875000000000000e+02,-2.122656250000000000e+02,-3.562500000000000000e+02
-2.126875000000000000e+02,-2.122656250000000000e+02,-3.487500000000000000e+02
-2.126875000000000000e+02,-2.114062500000000000e+02,-3.562500000000000000e+02
-2.131171875000000000e+02,-2.114062500000000000e+02,-3.575000000000000000e+02
-2.126875000000000000e+02,-2.114062500000000000e+02,-3.487500000000000000e+02
-2.131171875000000000e+02,-2.105468750000000000e+02,-3.550000000000000000e+02
-2.126875000000000000e+02,-2.109765625000000000e+02,-3.550000000000000000e+02
-2.126875000000000000e+02,-2.105468750000000000e+02,-3.537500000000000000e+02
-2.131171875000000000e+02,-2.105468750000000000e+02,-3.500000000000000000e+02
-2.126875000000000000e+02,-2.109765625000000000e+02,-3.500000000000000000e+02
-2.126875000000000000e+02,-2.105468750000000000e+02,-3.512500000000000000e+02
-2.126875000000000000e+02,-2.101171875000000000e+02,-3.525000000000000000e+02
-2.122578125000000000e+02,-2.165625000000000000e+02,-3.575000000000000000e+02
-2.122578125000000000e+02,-2.157031250000000000e+02,-3.550000000000000000e+02
-2.122578125000000000e+02,-2.157031250000000000e+02,-3.525000000000000000e+02
-2.122578125000000000e+02,-2.157031250000000000e+02,-3.500000000000000000e+02
-2.122578125000000000e+02,-2.148437500000000000e+02,-3.550000000000000000e+02
-2.122578125000000000e+02,-2.148437500000000000e+02,-3.525000000000000000e+02
-2.122578125000000000e+02,-2.148437500000000000e+02,-3.500000000000000000e+02
-2.122578125000000000e+02,-2.139843750000000000e+02,-3.575000000000000000e+02
-2.122578125000000000e+02,-2.139843750000000000e+02,-3.550000000000000000e+02
-2.118281250000000000e+02,-2.139843750000000000e+02,-3.537500000000000000e+02
-2.118281250000000000e+02,-2.144140625000000000e+02,-3.525000000000000000e+02
-2.118281250000000000e+02,-2.144140625000000000e+02,-3.500000000000000000e+02
-2.118281250000000000e+02,-2.139843750000000000e+02,-3.487500000000000000e+02
-2.122578125000000000e+02,-2.131250000000000000e+02,-3.550000000000000000e+02
-2.122578125000000000e+02,-2.131250000000000000e+02,-3.575000000000000000e+02
-2.118281250000000000e+02,-2.131250000000000000e+02,-3.537500000000000000e+02
-2.118281250000000000e+02,-2.131250000000000000e+02,-3.487500000000000000e+02
-2.122578125000000000e+02,-2.122656250000000000e+02,-3.550000000000000000e+02
-2.118281250000000000e+02,-2.122656250000000000e+02,-3.537500000000000000e+02
-2.122578125000000000e+02,-2.122656250000000000e+02,-3.500000000000000000e+02
-2.118281250000000000e+02,-2.126953125000000000e+02,-3.500000000000000000e+02
-2.118281250000000000e+02,-2.122656250000000000e+02,-3.512500000000000000e+02
-2.122578125000000000e+02,-2.114062500000000000e+02,-3.550000000000000000e+02
-2.118281250000000000e+02,-2.118359375000000000e+02,-3.525000000000000000e+02
-2.122578125000000000e+02,-2.114062500000000000e+02,-3.525000000000000000e+02
-2.122578125000000000e+02,-2.114062500000000000e+02,-3.500000000000000000e+02
-2.122578125000000000e+02,-2.105468750000000000e+02,-3.525000000000000000e+02
-2.113984375000000000e+02,-2.139843750000000000e+02,-3.525000000000000000e+02
-2.113984375000000000e+02,-2.139843750000000000e+02,-3.500000000000000000e+02
-2.113984375000000000e+02,-2.131250000000000000e+02,-3.525000000000000000e+02
-2.113984375000000000e+02,-2.131250000000000000e+02,-3.500000000000000000e+02
-2.113984375000000000e+02,-2.122656250000000000e+02,-3.525000000000000000e+02
