-1.665749969999999962e+02,-1.571875000000000000e+02,-2.737500000000000000e+02
-1.665749969999999962e+02,-1.568750000000000000e+02,-2.731250000000000000e+02
-1.668874969999999962e+02,-1.568750000000000000e+02,-2.737500000000000000e+02
-1.665749969999999962e+02,-1.565625000000000000e+02,-2.737500000000000000e+02
-1.662624969999999962e+02,-1.575000000000000000e+02,-2.737500000000000000e+02
-1.659499969999999962e+02,-1.578125000000000000e+02,-2.725000000000000000e+02
-1.662624969999999962e+02,-1.575000000000000000e+02,-2.725000000000000000e+02
-1.659499969999999962e+02,-1.578125000000000000e+02,-2.737500000000000000e+02
-1.659499969999999962e+02,-1.575000000000000000e+02,-2.718750000000000000e+02
-1.662624969999999962e+02,-1.568750000000000000e+02,-2.725000000000000000e+02
-1.659499969999999962e+02,-1.568750000000000000e+02,-2.718750000000000000e+02
-1.659499969999999962e+02,-1.562500000000000000e+02,-2.731250000000000000e+02
-1.662624969999999962e+02,-1.562500000000000000e+02,-2.737500000000000000e+02
-1.659499969999999962e+02,-1.565625000000000000e+02,-2.725000000000000000e+02
-1.659499969999999962e+02,-1.556250000000000000e+02,-2.731250000000000000e+02
-1.662624969999999962e+02,-1.556250000000000000e+02,-2.737500000000000000e+02
-1.659499969999999962e+02,-1.553125000000000000e+02,-2.737500000000000000e+02
-1.656374969999999962e+02,-1.587500000000000000e+02,-2.725000000000000000e+02
-1.653249969999999962e+02,-1.587500000000000000e+02,-2.731250000000000000e+02
-1.653249969999999962e+02,-1.590625000000000000e+02,-2.725000000000000000e+02
-1.653249969999999962e+02,-1.587500000000000000e+02,-2.718750000000000000e+02
-1.656374969999999962e+02,-1.581250000000000000e+02,-2.737500000000000000e+02
-1.653249969999999962e+02,-1.584375000000000000e+02,-2.737500000000000000e+02
-1.656374969999999962e+02,-1.581250000000000000e+02,-2.725000000000000000e+02
-1.653249969999999962e+02,-1.581250000000000000e+02,-2.718750000000000000e+02
-1.653249969999999962e+02,-1.578125000000000000e+02,-2.712500000000000000e+02
-1.656374969999999962e+02,-1.575000000000000000e+02,-2.712500000000000000e+02
-1.653249969999999962e+02,-1.571875000000000000e+02,-2.712500000000000000e+02
-1.653249969999999962e+02,-1.568750000000000000e+02,-2.718750000000000000e+02
-1.656374969999999962e+02,-1.562500000000000000e+02,-2.725000000000000000e+02
-1.653249969999999962e+02,-1.562500000000000000e+02,-2.718750000000000000e+02
-1.653249969999999962e+02,-1.559375000000000000e+02,-2.725000000000000000e+02
-1.653249969999999962e+02,-1.556250000000000000e+02,-2.731250000000000000e+02
-1.653249969999999962e+02,-1.553125000000000000e+02,-2.737500000000000000e+02
-1.646999969999999962e+02,-1.587500000000000000e+02,-2.731250000000000000e+02
-1.646999969999999962e+02,-1.590625000000000000e+02,-2.725000000000000000e+02
-1.646999969999999962e+02,-1.590625000000000000e+02,-2.712500000000000000e+02
-1.650124969999999962e+02,-1.587500000000000000e+02,-2.712500000000000000e+02
-1.646999969999999962e+02,-1.584375000000000000e+02,-2.737500000000000000e+02
-1.650124969999999962e+02,-1.581250000000000000e+02,-2.712500000000000000e+02
-1.650124969999999962e+02,-1.568750000000000000e+02,-2.712500000000000000e+02
-1.650124969999999962e+02,-1.562500000000000000e+02,-2.712500000000000000e+02
-1.650124969999999962e+02,-1.556250000000000000e+02,-2.725000000000000000e+02
-1.646999969999999962e+02,-1.556250000000000000e+02,-2.718750000000000000e+02
-1.646999969999999962e+02,-1.559375000000000000e+02,-2.712500000000000000e+02
-1.646999969999999962e+02,-1.553125000000000000e+02,-2.725000000000000000e+02
-1.646999969999999962e+02,-1.553125000000000000e+02,-2.737500000000000000e+02
-1.643874969999999962e+02,-1.593750000000000000e+02,-2.712500000000000000e+02
-1.640749969999999962e+02,-1.593750000000000000e+02,-2.718750000000000000e+02
-1.640749969999999962e+02,-1.596875000000000000e+02,-2.712500000000000000e+02
-1.640749969999999962e+02,-1.587500000000000000e+02,-2.731250000000000000e+02
-1.640749969999999962e+02,-1.590625000000000000e+02,-2.725000000000000000e+02
-1.640749969999999962e+02,-1.584375000000000000e+02,-2.737500000000000000e+02
-1.640749969999999962e+02,-1.559375000000000000e+02,-2.712500000000000000e+02
-1.640749969999999962e+02,-1.556250000000000000e+02,-2.718750000000000000e+02
-1.643874969999999962e+02,-1.550000000000000000e+02,-2.725000000000000000e+02
-1.643874969999999962e+02,-1.550000000000000000e+02,-2.737500000000000000e+02
-1.640749969999999962e+02,-1.550000000000000000e+02,-2.718750000000000000e+02
-1.640749969999999962e+02,-1.546875000000000000e+02,-2.737500000000000000e+02
-1.640749969999999962e+02,-1.546875000000000000e+02,-2.725000000000000000e+02
-1.637624969999999962e+02,-1.593750000000000000e+02,-2.725000000000000000e+02
-1.634499969999999962e+02,-1.593750000000000000e+02,-2.731250000000000000e+02
-1.634499969999999962e+02,-1.596875000000000000e+02,-2.725000000000000000e+02
-1.634499969999999962e+02,-1.596875000000000000e+02,-2.712500000000000000e+02
-1.634499969999999962e+02,-1.587500000000000000e+02,-2.731250000000000000e+02
-1.634499969999999962e+02,-1.584375000000000000e+02,-2.737500000000000000e+02
-1.634499969999999962e+02,-1.559375000000000000e+02,-2.712500000000000000e+02
-1.634499969999999962e+02,-1.556250000000000000e+02,-2.718750000000000000e+02
-1.634499969999999962e+02,-1.550000000000000000e+02,-2.718750000000000000e+02
-1.634499969999999962e+02,-1.543750000000000000e+02,-2.731250000000000000e+02
-1.637624969999999962e+02,-1.543750000000000000e+02,-2.737500000000000000e+02
-1.634499969999999962e+02,-1.546875000000000000e+02,-2.725000000000000000e+02
-1.634499969999999962e+02,-1.537500000000000000e+02,-2.731250000000000000e+02
-1.637624969999999962e+02,-1.537500000000000000e+02,-2.737500000000000000e+02
-1.634499969999999962e+02,-1.534375000000000000e+02,-2.737500000000000000e+02
-1.631374969999999962e+02,-1.593750000000000000e+02,-2.725000000000000000e+02
-1.628249969999999962e+02,-1.593750000000000000e+02,-2.718750000000000000e+02
-1.628249969999999962e+02,-1.596875000000000000e+02,-2.712500000000000000e+02
-1.628249969999999962e+02,-1.587500000000000000e+02,-2.731250000000000000e+02
-1.628249969999999962e+02,-1.590625000000000000e+02,-2.725000000000000000e+02
-1.631374969999999962e+02,-1.581250000000000000e+02,-2.737500000000000000e+02
-1.628249969999999962e+02,-1.581250000000000000e+02,-2.731250000000000000e+02
-1.628249969999999962e+02,-1.578125000000000000e+02,-2.737500000000000000e+02
-1.628249969999999962e+02,-1.565625000000000000e+02,-2.737500000000000000e+02
-1.631374969999999962e+02,-1.562500000000000000e+02,-2.737500000000000000e+02
-1.628249969999999962e+02,-1.562500000000000000e+02,-2.731250000000000000e+02
-1.628249969999999962e+02,-1.556250000000000000e+02,-2.731250000000000000e+02
-1.631374969999999962e+02,-1.556250000000000000e+02,-2.737500000000000000e+02
-1.628249969999999962e+02,-1.559375000000000000e+02,-2.712500000000000000e+02
-1.628249969999999962e+02,-1.556250000000000000e+02,-2.718750000000000000e+02
-1.628249969999999962e+02,-1.550000000000000000e+02,-2.731250000000000000e+02
-1.631374969999999962e+02,-1.550000000000000000e+02,-2.737500000000000000e+02
-1.628249969999999962e+02,-1.550000000000000000e+02,-2.718750000000000000e+02
-1.628249969999999962e+02,-1.546875000000000000e+02,-2.725000000000000000e+02
-1.631374969999999962e+02,-1.543750000000000000e+02,-2.737500000000000000e+02
-1.631374969999999962e+02,-1.537500000000000000e+02,-2.737500000000000000e+02
-1.625124969999999962e+02,-1.593750000000000000e+02,-2.712500000000000000e+02
-1.621999969999999962e+02,-1.587500000000000000e+02,-2.731250000000000000e+02
-1.621999969999999962e+02,-1.590625000000000000e+02,-2.725000000000000000e+02
-1.621999969999999962e+02,-1.590625000000000000e+02,-2.712500000000000000e+02
-1.621999969999999962e+02,-1.581250000000000000e+02,-2.731250000000000000e+02
-1.625124969999999962e+02,-1.575000000000000000e+02,-2.737500000000000000e+02
-1.621999969999999962e+02,-1.575000000000000000e+02,-2.731250000000000000e+02
-1.621999969999999962e+02,-1.568750000000000000e+02,-2.731250000000000000e+02
-1.625124969999999962e+02,-1.568750000000000000e+02,-2.737500000000000000e+02
-1.621999969999999962e+02,-1.562500000000000000e+02,-2.731250000000000000e+02
-1.625124969999999962e+02,-1.562500000000000000e+02,-2.712500000000000000e+02
-1.621999969999999962e+02,-1.565625000000000000e+02,-2.712500000000000000e+02
-1.621999969999999962e+02,-1.562500000000000000e+02,-2.718750000000000000e+02
-1.621999969999999962e+02,-1.556250000000000000e+02,-2.731250000000000000e+02
-1.621999969999999962e+02,-1.556250000000000000e+02,-2.718750000000000000e+02
-1.621999969999999962e+02,-1.550000000000000000e+02,-2.731250000000000000e+02
-1.621999969999999962e+02,-1.550000000000000000e+02,-2.718750000000000000e+02
-1.621999969999999962e+02,-1.546875000000000000e+02,-2.725000000000000000e+02
-1.615749969999999962e+02,-1.587500000000000000e+02,-2.731250000000000000e+02
-1.615749969999999962e+02,-1.590625000000000000e+02,-2.725000000000000000e+02
-1.618874969999999962e+02,-1.587500000000000000e+02,-2.712500000000000000e+02
-1.615749969999999962e+02,-1.587500000000000000e+02,-2.718750000000000000e+02
-1.615749969999999962e+02,-1.581250000000000000e+02,-2.731250000000000000e+02
-1.615749969999999962e+02,-1.584375000000000000e+02,-2.712500000000000000e+02
-1.615749969999999962e+02,-1.575000000000000000e+02,-2.731250000000000000e+02
-1.615749969999999962e+02,-1.568750000000000000e+02,-2.731250000000000000e+02
-1.618874969999999962e+02,-1.568750000000000000e+02,-2.712500000000000000e+02
-1.615749969999999962e+02,-1.571875000000000000e+02,-2.712500000000000000e+02
-1.615749969999999962e+02,-1.568750000000000000e+02,-2.718750000000000000e+02
-1.615749969999999962e+02,-1.562500000000000000e+02,-2.731250000000000000e+02
-1.615749969999999962e+02,-1.562500000000000000e+02,-2.718750000000000000e+02
-1.615749969999999962e+02,-1.556250000000000000e+02,-2.731250000000000000e+02
-1.615749969999999962e+02,-1.556250000000000000e+02,-2.718750000000000000e+02
-1.615749969999999962e+02,-1.553125000000000000e+02,-2.725000000000000000e+02
-1.618874969999999962e+02,-1.550000000000000000e+02,-2.725000000000000000e+02
-1.612624969999999962e+02,-1.587500000000000000e+02,-2.725000000000000000e+02
-1.612624969999999962e+02,-1.581250000000000000e+02,-2.725000000000000000e+02
-1.612624969999999962e+02,-1.581250000000000000e+02,-2.712500000000000000e+02
-1.612624969999999962e+02,-1.575000000000000000e+02,-2.725000000000000000e+02
-1.612624969999999962e+02,-1.575000000000000000e+02,-2.712500000000000000e+02
-1.612624969999999962e+02,-1.568750000000000000e+02,-2.725000000000000000e+02
-1.612624969999999962e+02,-1.562500000000000000e+02,-2.725000000000000000e+02
-1.612624969999999962e+02,-1.556250000000000000e+02,-2.725000000000000000e+02
