-1.453132850000000076e+02,5.442939375000000268e+01,-7.642000120000000152e+02
-1.453132850000000076e+02,5.475361250000000268e+01,-7.627000120000000152e+02
-1.453132850000000076e+02,5.475361250000000268e+01,-7.617000120000000152e+02
-1.456375037500000076e+02,5.540205000000000268e+01,-7.712000120000000152e+02
-1.456375037500000076e+02,5.540205000000000268e+01,-7.622000120000000152e+02
-1.453132850000000076e+02,5.540205000000000268e+01,-7.627000120000000152e+02
-1.453132850000000076e+02,5.540205000000000268e+01,-7.617000120000000152e+02
-1.456375037500000076e+02,5.605048750000000268e+01,-7.712000120000000152e+02
-1.453132850000000076e+02,5.572626875000000268e+01,-7.622000120000000152e+02
-1.456375037500000076e+02,6.188642500000000268e+01,-7.702000120000000152e+02
-1.456375037500000076e+02,6.253486250000000268e+01,-7.702000120000000152e+02
-1.456375037500000076e+02,6.318330000000000268e+01,-7.712000120000000152e+02
-1.456375037500000076e+02,6.318330000000000268e+01,-7.702000120000000152e+02
-1.456375037500000076e+02,6.318330000000000268e+01,-7.692000120000000152e+02
-1.456375037500000076e+02,6.383173750000000268e+01,-7.712000120000000152e+02
-1.456375037500000076e+02,6.383173750000000268e+01,-7.702000120000000152e+02
-1.456375037500000076e+02,6.383173750000000268e+01,-7.692000120000000152e+02
-1.453132850000000076e+02,6.448017500000000268e+01,-7.717000120000000152e+02
-1.453132850000000076e+02,6.415595625000000268e+01,-7.712000120000000152e+02
-1.453132850000000076e+02,6.415595625000000268e+01,-7.702000120000000152e+02
-1.453132850000000076e+02,6.415595625000000268e+01,-7.692000120000000152e+02
-1.453132850000000076e+02,6.448017500000000268e+01,-7.687000120000000152e+02
-1.453132850000000076e+02,6.512861250000000268e+01,-7.717000120000000152e+02
-1.453132850000000076e+02,6.512861250000000268e+01,-7.687000120000000152e+02
-1.453132850000000076e+02,6.577705000000000268e+01,-7.717000120000000152e+02
-1.453132850000000076e+02,6.577705000000000268e+01,-7.687000120000000152e+02
-1.453132850000000076e+02,6.642548750000000268e+01,-7.717000120000000152e+02
-1.453132850000000076e+02,6.642548750000000268e+01,-7.687000120000000152e+02
-1.453132850000000076e+02,6.674970625000000268e+01,-7.712000120000000152e+02
-1.453132850000000076e+02,6.707392500000000268e+01,-7.707000120000000152e+02
-1.453132850000000076e+02,6.707392500000000268e+01,-7.687000120000000152e+02
-1.453132850000000076e+02,6.772236250000000268e+01,-7.707000120000000152e+02
-1.453132850000000076e+02,6.772236250000000268e+01,-7.687000120000000152e+02
-1.453132850000000076e+02,6.837080000000000268e+01,-7.707000120000000152e+02
-1.453132850000000076e+02,6.837080000000000268e+01,-7.687000120000000152e+02
-1.453132850000000076e+02,6.901923750000000268e+01,-7.707000120000000152e+02
-1.453132850000000076e+02,6.901923750000000268e+01,-7.687000120000000152e+02
-1.453132850000000076e+02,6.966767500000000268e+01,-7.707000120000000152e+02
-1.453132850000000076e+02,6.966767500000000268e+01,-7.687000120000000152e+02
-1.453132850000000076e+02,6.999189375000000268e+01,-7.702000120000000152e+02
-1.456375037500000076e+02,7.031611250000000268e+01,-7.692000120000000152e+02
-1.453132850000000076e+02,7.031611250000000268e+01,-7.697000120000000152e+02
-1.453132850000000076e+02,7.031611250000000268e+01,-7.687000120000000152e+02
-1.453132850000000076e+02,7.064033125000000268e+01,-7.692000120000000152e+02
-1.446648475000000076e+02,3.335517500000000268e+01,-7.767000120000000152e+02
-1.446648475000000076e+02,3.303095625000000268e+01,-7.762000120000000152e+02
-1.446648475000000076e+02,3.335517500000000268e+01,-7.757000120000000152e+02
-1.446648475000000076e+02,3.400361250000000268e+01,-7.767000120000000152e+02
-1.446648475000000076e+02,3.400361250000000268e+01,-7.757000120000000152e+02
-1.446648475000000076e+02,3.465205000000000268e+01,-7.767000120000000152e+02
-1.446648475000000076e+02,3.465205000000000268e+01,-7.757000120000000152e+02
-1.446648475000000076e+02,3.530048750000000268e+01,-7.767000120000000152e+02
-1.446648475000000076e+02,3.530048750000000268e+01,-7.757000120000000152e+02
-1.446648475000000076e+02,3.594892500000000268e+01,-7.767000120000000152e+02
-1.446648475000000076e+02,3.562470625000000268e+01,-7.752000120000000152e+02
-1.449890662500000076e+02,3.594892500000000268e+01,-7.752000120000000152e+02
-1.446648475000000076e+02,3.562470625000000268e+01,-7.742000120000000152e+02
-1.449890662500000076e+02,3.594892500000000268e+01,-7.742000120000000152e+02
-1.446648475000000076e+02,3.562470625000000268e+01,-7.732000120000000152e+02
-1.449890662500000076e+02,3.594892500000000268e+01,-7.732000120000000152e+02
-1.446648475000000076e+02,3.562470625000000268e+01,-7.722000120000000152e+02
-1.449890662500000076e+02,3.594892500000000268e+01,-7.722000120000000152e+02
-1.446648475000000076e+02,3.562470625000000268e+01,-7.712000120000000152e+02
-1.446648475000000076e+02,3.594892500000000268e+01,-7.707000120000000152e+02
-1.449890662500000076e+02,3.594892500000000268e+01,-7.682000120000000152e+02
-1.449890662500000076e+02,3.659736250000000268e+01,-7.782000120000000152e+02
-1.446648475000000076e+02,3.659736250000000268e+01,-7.767000120000000152e+02
-1.449890662500000076e+02,3.659736250000000268e+01,-7.752000120000000152e+02
-1.449890662500000076e+02,3.659736250000000268e+01,-7.732000120000000152e+02
-1.449890662500000076e+02,3.659736250000000268e+01,-7.722000120000000152e+02
-1.446648475000000076e+02,3.659736250000000268e+01,-7.707000120000000152e+02
-1.446648475000000076e+02,3.659736250000000268e+01,-7.687000120000000152e+02
-1.446648475000000076e+02,3.627314375000000268e+01,-7.682000120000000152e+02
-1.446648475000000076e+02,3.659736250000000268e+01,-7.677000120000000152e+02
-1.449890662500000076e+02,3.724580000000000268e+01,-7.792000120000000152e+02
-1.446648475000000076e+02,3.724580000000000268e+01,-7.787000120000000152e+02
-1.446648475000000076e+02,3.692158125000000268e+01,-7.782000120000000152e+02
-1.446648475000000076e+02,3.724580000000000268e+01,-7.777000120000000152e+02
-1.446648475000000076e+02,3.724580000000000268e+01,-7.767000120000000152e+02
-1.449890662500000076e+02,3.724580000000000268e+01,-7.732000120000000152e+02
-1.446648475000000076e+02,3.692158125000000268e+01,-7.702000120000000152e+02
-1.446648475000000076e+02,3.692158125000000268e+01,-7.692000120000000152e+02
-1.446648475000000076e+02,3.724580000000000268e+01,-7.677000120000000152e+02
-1.449890662500000076e+02,3.724580000000000268e+01,-7.652000120000000152e+02
-1.446648475000000076e+02,3.724580000000000268e+01,-7.657000120000000152e+02
-1.446648475000000076e+02,3.692158125000000268e+01,-7.652000120000000152e+02
-1.446648475000000076e+02,3.724580000000000268e+01,-7.647000120000000152e+02
-1.449890662500000076e+02,3.789423750000000268e+01,-7.802000120000000152e+02
-1.449890662500000076e+02,3.789423750000000268e+01,-7.792000120000000152e+02
-1.446648475000000076e+02,3.789423750000000268e+01,-7.787000120000000152e+02
-1.446648475000000076e+02,3.789423750000000268e+01,-7.777000120000000152e+02
-1.446648475000000076e+02,3.789423750000000268e+01,-7.767000120000000152e+02
-1.449890662500000076e+02,3.789423750000000268e+01,-7.732000120000000152e+02
-1.446648475000000076e+02,3.789423750000000268e+01,-7.677000120000000152e+02
-1.449890662500000076e+02,3.789423750000000268e+01,-7.662000120000000152e+02
-1.446648475000000076e+02,3.789423750000000268e+01,-7.657000120000000152e+02
-1.449890662500000076e+02,3.789423750000000268e+01,-7.652000120000000152e+02
-1.446648475000000076e+02,3.789423750000000268e+01,-7.647000120000000152e+02
-1.446648475000000076e+02,3.821845625000000268e+01,-7.802000120000000152e+02
-1.446648475000000076e+02,3.854267500000000268e+01,-7.797000120000000152e+02
-1.449890662500000076e+02,3.854267500000000268e+01,-7.792000120000000152e+02
-1.446648475000000076e+02,3.854267500000000268e+01,-7.787000120000000152e+02
-1.446648475000000076e+02,3.821845625000000268e+01,-7.772000120000000152e+02
-1.446648475000000076e+02,3.821845625000000268e+01,-7.672000120000000152e+02
-1.449890662500000076e+02,3.854267500000000268e+01,-7.672000120000000152e+02
-1.446648475000000076e+02,3.821845625000000268e+01,-7.662000120000000152e+02
-1.446648475000000076e+02,3.854267500000000268e+01,-7.647000120000000152e+02
-1.449890662500000076e+02,3.919111250000000268e+01,-7.792000120000000152e+02
-1.446648475000000076e+02,3.919111250000000268e+01,-7.797000120000000152e+02
-1.446648475000000076e+02,3.919111250000000268e+01,-7.787000120000000152e+02
-1.446648475000000076e+02,3.919111250000000268e+01,-7.647000120000000152e+02
-1.449890662500000076e+02,3.983955000000000268e+01,-7.792000120000000152e+02
-1.446648475000000076e+02,3.983955000000000268e+01,-7.797000120000000152e+02
-1.446648475000000076e+02,3.983955000000000268e+01,-7.787000120000000152e+02
-1.446648475000000076e+02,3.983955000000000268e+01,-7.647000120000000152e+02
-1.449890662500000076e+02,4.048798750000000268e+01,-7.792000120000000152e+02
-1.446648475000000076e+02,4.048798750000000268e+01,-7.797000120000000152e+02
-1.446648475000000076e+02,4.048798750000000268e+01,-7.787000120000000152e+02
-1.446648475000000076e+02,4.016376875000000268e+01,-7.642000120000000152e+02
-1.449890662500000076e+02,4.048798750000000268e+01,-7.642000120000000152e+02
-1.446648475000000076e+02,4.048798750000000268e+01,-7.637000120000000152e+02
-1.449890662500000076e+02,4.113642500000000268e+01,-7.792000120000000152e+02
-1.446648475000000076e+02,4.113642500000000268e+01,-7.797000120000000152e+02
-1.446648475000000076e+02,4.113642500000000268e+01,-7.787000120000000152e+02
-1.449890662500000076e+02,4.113642500000000268e+01,-7.642000120000000152e+02
-1.446648475000000076e+02,4.113642500000000268e+01,-7.637000120000000152e+02
-1.446648475000000076e+02,4.146064375000000268e+01,-7.802000120000000152e+02
-1.449890662500000076e+02,4.178486250000000268e+01,-7.802000120000000152e+02
-1.449890662500000076e+02,4.178486250000000268e+01,-7.792000120000000152e+02
-1.446648475000000076e+02,4.178486250000000268e+01,-7.787000120000000152e+02
-1.449890662500000076e+02,4.178486250000000268e+01,-7.642000120000000152e+02
-1.446648475000000076e+02,4.178486250000000268e+01,-7.637000120000000152e+02
-1.449890662500000076e+02,4.243330000000000268e+01,-7.792000120000000152e+02
-1.449890662500000076e+02,4.243330000000000268e+01,-7.802000120000000152e+02
-1.446648475000000076e+02,4.243330000000000268e+01,-7.787000120000000152e+02
-1.449890662500000076e+02,4.243330000000000268e+01,-7.642000120000000152e+02
-1.446648475000000076e+02,4.243330000000000268e+01,-7.637000120000000152e+02
-1.449890662500000076e+02,4.308173750000000268e+01,-7.792000120000000152e+02
-1.449890662500000076e+02,4.308173750000000268e+01,-7.802000120000000152e+02
-1.446648475000000076e+02,4.308173750000000268e+01,-7.787000120000000152e+02
-1.449890662500000076e+02,4.308173750000000268e+01,-7.642000120000000152e+02
-1.446648475000000076e+02,4.308173750000000268e+01,-7.637000120000000152e+02
-1.449890662500000076e+02,4.373017500000000268e+01,-7.792000120000000152e+02
-1.449890662500000076e+02,4.373017500000000268e+01,-7.802000120000000152e+02
-1.446648475000000076e+02,4.373017500000000268e+01,-7.787000120000000152e+02
-1.449890662500000076e+02,4.373017500000000268e+01,-7.642000120000000152e+02
-1.446648475000000076e+02,4.373017500000000268e+01,-7.637000120000000152e+02
-1.449890662500000076e+02,4.437861250000000268e+01,-7.792000120000000152e+02
-1.449890662500000076e+02,4.437861250000000268e+01,-7.802000120000000152e+02
-1.446648475000000076e+02,4.437861250000000268e+01,-7.787000120000000152e+02
-1.446648475000000076e+02,4.437861250000000268e+01,-7.637000120000000152e+02
-1.449890662500000076e+02,4.437861250000000268e+01,-7.632000120000000152e+02
-1.449890662500000076e+02,4.502705000000000268e+01,-7.792000120000000152e+02
-1.449890662500000076e+02,4.502705000000000268e+01,-7.802000120000000152e+02
-1.446648475000000076e+02,4.502705000000000268e+01,-7.787000120000000152e+02
-1.446648475000000076e+02,4.470283125000000268e+01,-7.632000120000000152e+02
-1.446648475000000076e+02,4.502705000000000268e+01,-7.627000120000000152e+02
-1.449890662500000076e+02,4.567548750000000268e+01,-7.792000120000000152e+02
-1.449890662500000076e+02,4.567548750000000268e+01,-7.802000120000000152e+02
-1.446648475000000076e+02,4.567548750000000268e+01,-7.787000120000000152e+02
-1.446648475000000076e+02,4.567548750000000268e+01,-7.627000120000000152e+02
-1.449890662500000076e+02,4.632392500000000268e+01,-7.792000120000000152e+02
-1.449890662500000076e+02,4.632392500000000268e+01,-7.802000120000000152e+02
-1.446648475000000076e+02,4.632392500000000268e+01,-7.787000120000000152e+02
-1.446648475000000076e+02,4.632392500000000268e+01,-7.627000120000000152e+02
-1.449890662500000076e+02,4.697236250000000268e+01,-7.792000120000000152e+02
-1.449890662500000076e+02,4.697236250000000268e+01,-7.802000120000000152e+02
-1.446648475000000076e+02,4.697236250000000268e+01,-7.787000120000000152e+02
-1.446648475000000076e+02,4.697236250000000268e+01,-7.627000120000000152e+02
-1.449890662500000076e+02,4.762080000000000268e+01,-7.792000120000000152e+02
-1.449890662500000076e+02,4.762080000000000268e+01,-7.802000120000000152e+02
-1.446648475000000076e+02,4.762080000000000268e+01,-7.787000120000000152e+02
-1.446648475000000076e+02,4.729658125000000268e+01,-7.772000120000000152e+02
-1.446648475000000076e+02,4.762080000000000268e+01,-7.777000120000000152e+02
-1.446648475000000076e+02,4.762080000000000268e+01,-7.767000120000000152e+02
-1.446648475000000076e+02,4.762080000000000268e+01,-7.627000120000000152e+02
-1.449890662500000076e+02,4.826923750000000268e+01,-7.792000120000000152e+02
-1.449890662500000076e+02,4.826923750000000268e+01,-7.802000120000000152e+02
-1.446648475000000076e+02,4.826923750000000268e+01,-7.787000120000000152e+02
-1.446648475000000076e+02,4.826923750000000268e+01,-7.777000120000000152e+02
-1.446648475000000076e+02,4.826923750000000268e+01,-7.767000120000000152e+02
-1.446648475000000076e+02,4.794501875000000268e+01,-7.622000120000000152e+02
-1.449890662500000076e+02,4.826923750000000268e+01,-7.622000120000000152e+02
-1.446648475000000076e+02,4.826923750000000268e+01,-7.617000120000000152e+02
-1.446648475000000076e+02,4.859345625000000268e+01,-7.782000120000000152e+02
-1.446648475000000076e+02,4.859345625000000268e+01,-7.762000120000000152e+02
-1.446648475000000076e+02,4.859345625000000268e+01,-7.752000120000000152e+02
-1.446648475000000076e+02,4.891767500000000268e+01,-7.747000120000000152e+02
-1.446648475000000076e+02,4.891767500000000268e+01,-7.617000120000000152e+02
-1.446648475000000076e+02,4.956611250000000268e+01,-7.747000120000000152e+02
-1.446648475000000076e+02,4.956611250000000268e+01,-7.617000120000000152e+02
-1.446648475000000076e+02,4.989033125000000268e+01,-7.742000120000000152e+02
-1.449890662500000076e+02,5.021455000000000268e+01,-7.732000120000000152e+02
-1.446648475000000076e+02,4.989033125000000268e+01,-7.732000120000000152e+02
-1.446648475000000076e+02,5.021455000000000268e+01,-7.727000120000000152e+02
-1.449890662500000076e+02,5.021455000000000268e+01,-7.682000120000000152e+02
-1.446648475000000076e+02,4.989033125000000268e+01,-7.672000120000000152e+02
-1.446648475000000076e+02,5.021455000000000268e+01,-7.677000120000000152e+02
-1.449890662500000076e+02,5.021455000000000268e+01,-7.672000120000000152e+02
-1.446648475000000076e+02,5.021455000000000268e+01,-7.667000120000000152e+02
-1.446648475000000076e+02,5.021455000000000268e+01,-7.617000120000000152e+02
-1.449890662500000076e+02,5.086298750000000268e+01,-7.722000120000000152e+02
-1.446648475000000076e+02,5.053876875000000268e+01,-7.722000120000000152e+02
-1.449890662500000076e+02,5.086298750000000268e+01,-7.712000120000000152e+02
-1.446648475000000076e+02,5.053876875000000268e+01,-7.712000120000000152e+02
-1.449890662500000076e+02,5.086298750000000268e+01,-7.702000120000000152e+02
-1.446648475000000076e+02,5.053876875000000268e+01,-7.702000120000000152e+02
-1.449890662500000076e+02,5.086298750000000268e+01,-7.692000120000000152e+02
-1.446648475000000076e+02,5.053876875000000268e+01,-7.692000120000000152e+02
-1.446648475000000076e+02,5.053876875000000268e+01,-7.682000120000000152e+02
-1.446648475000000076e+02,5.053876875000000268e+01,-7.662000120000000152e+02
-1.446648475000000076e+02,5.086298750000000268e+01,-7.657000120000000152e+02
-1.446648475000000076e+02,5.086298750000000268e+01,-7.617000120000000152e+02
-1.449890662500000076e+02,5.151142500000000268e+01,-7.712000120000000152e+02
-1.449890662500000076e+02,5.151142500000000268e+01,-7.652000120000000152e+02
-1.446648475000000076e+02,5.151142500000000268e+01,-7.657000120000000152e+02
-1.446648475000000076e+02,5.151142500000000268e+01,-7.617000120000000152e+02
-1.446648475000000076e+02,5.183564375000000268e+01,-7.652000120000000152e+02
-1.446648475000000076e+02,5.215986250000000268e+01,-7.647000120000000152e+02
-1.446648475000000076e+02,5.215986250000000268e+01,-7.617000120000000152e+02
-1.446648475000000076e+02,5.280830000000000268e+01,-7.647000120000000152e+02
-1.446648475000000076e+02,5.280830000000000268e+01,-7.617000120000000152e+02
-1.446648475000000076e+02,5.345673750000000268e+01,-7.647000120000000152e+02
-1.446648475000000076e+02,5.345673750000000268e+01,-7.617000120000000152e+02
-1.446648475000000076e+02,5.410517500000000268e+01,-7.647000120000000152e+02
-1.449890662500000076e+02,5.410517500000000268e+01,-7.632000120000000152e+02
-1.446648475000000076e+02,5.410517500000000268e+01,-7.617000120000000152e+02
-1.446648475000000076e+02,5.442939375000000268e+01,-7.642000120000000152e+02
-1.449890662500000076e+02,5.475361250000000268e+01,-7.632000120000000152e+02
-1.446648475000000076e+02,5.475361250000000268e+01,-7.637000120000000152e+02
-1.446648475000000076e+02,5.475361250000000268e+01,-7.617000120000000152e+02
-1.449890662500000076e+02,5.540205000000000268e+01,-7.632000120000000152e+02
-1.446648475000000076e+02,5.540205000000000268e+01,-7.637000120000000152e+02
-1.446648475000000076e+02,5.540205000000000268e+01,-7.617000120000000152e+02
-1.449890662500000076e+02,5.605048750000000268e+01,-7.632000120000000152e+02
-1.446648475000000076e+02,5.605048750000000268e+01,-7.637000120000000152e+02
-1.449890662500000076e+02,5.605048750000000268e+01,-7.622000120000000152e+02
-1.446648475000000076e+02,5.605048750000000268e+01,-7.617000120000000152e+02
-1.446648475000000076e+02,5.637470625000000268e+01,-7.632000120000000152e+02
-1.449890662500000076e+02,5.669892500000000268e+01,-7.622000120000000152e+02
-1.446648475000000076e+02,5.669892500000000268e+01,-7.627000120000000152e+02
-1.446648475000000076e+02,5.669892500000000268e+01,-7.617000120000000152e+02
-1.449890662500000076e+02,5.734736250000000268e+01,-7.622000120000000152e+02
-1.446648475000000076e+02,5.734736250000000268e+01,-7.627000120000000152e+02
-1.446648475000000076e+02,5.734736250000000268e+01,-7.617000120000000152e+02
-1.449890662500000076e+02,5.799580000000000268e+01,-7.622000120000000152e+02
-1.446648475000000076e+02,5.799580000000000268e+01,-7.627000120000000152e+02
-1.446648475000000076e+02,5.799580000000000268e+01,-7.617000120000000152e+02
-1.449890662500000076e+02,5.864423750000000268e+01,-7.622000120000000152e+02
-1.446648475000000076e+02,5.864423750000000268e+01,-7.627000120000000152e+02
-1.446648475000000076e+02,5.864423750000000268e+01,-7.617000120000000152e+02
-1.446648475000000076e+02,5.896845625000000268e+01,-7.622000120000000152e+02
-1.449890662500000076e+02,6.448017500000000268e+01,-7.712000120000000152e+02
-1.449890662500000076e+02,6.448017500000000268e+01,-7.702000120000000152e+02
-1.449890662500000076e+02,6.448017500000000268e+01,-7.692000120000000152e+02
-1.449890662500000076e+02,6.512861250000000268e+01,-7.712000120000000152e+02
-1.449890662500000076e+02,6.512861250000000268e+01,-7.702000120000000152e+02
-1.449890662500000076e+02,6.512861250000000268e+01,-7.692000120000000152e+02
-1.449890662500000076e+02,6.577705000000000268e+01,-7.712000120000000152e+02
-1.449890662500000076e+02,6.577705000000000268e+01,-7.702000120000000152e+02
-1.446648475000000076e+02,6.577705000000000268e+01,-7.697000120000000152e+02
-1.446648475000000076e+02,6.545283125000000268e+01,-7.692000120000000152e+02
-1.446648475000000076e+02,6.577705000000000268e+01,-7.687000120000000152e+02
-1.449890662500000076e+02,6.642548750000000268e+01,-7.712000120000000152e+02
-1.449890662500000076e+02,6.642548750000000268e+01,-7.702000120000000152e+02
-1.446648475000000076e+02,6.642548750000000268e+01,-7.697000120000000152e+02
-1.446648475000000076e+02,6.642548750000000268e+01,-7.687000120000000152e+02
-1.449890662500000076e+02,6.707392500000000268e+01,-7.702000120000000152e+02
-1.446648475000000076e+02,6.707392500000000268e+01,-7.697000120000000152e+02
-1.446648475000000076e+02,6.707392500000000268e+01,-7.687000120000000152e+02
-1.449890662500000076e+02,6.772236250000000268e+01,-7.702000120000000152e+02
-1.446648475000000076e+02,6.772236250000000268e+01,-7.697000120000000152e+02
-1.446648475000000076e+02,6.772236250000000268e+01,-7.687000120000000152e+02
-1.449890662500000076e+02,6.837080000000000268e+01,-7.702000120000000152e+02
-1.446648475000000076e+02,6.837080000000000268e+01,-7.697000120000000152e+02
-1.446648475000000076e+02,6.837080000000000268e+01,-7.687000120000000152e+02
-1.449890662500000076e+02,6.901923750000000268e+01,-7.702000120000000152e+02
-1.446648475000000076e+02,6.901923750000000268e+01,-7.697000120000000152e+02
-1.446648475000000076e+02,6.901923750000000268e+01,-7.687000120000000152e+02
-1.449890662500000076e+02,6.966767500000000268e+01,-7.702000120000000152e+02
-1.446648475000000076e+02,6.966767500000000268e+01,-7.697000120000000152e+02
-1.446648475000000076e+02,6.966767500000000268e+01,-7.687000120000000152e+02
-1.446648475000000076e+02,7.031611250000000268e+01,-7.707000120000000152e+02
-1.449890662500000076e+02,7.031611250000000268e+01,-7.702000120000000152e+02
-1.446648475000000076e+02,6.999189375000000268e+01,-7.702000120000000152e+02
-1.446648475000000076e+02,7.031611250000000268e+01,-7.687000120000000152e+02
-1.446648475000000076e+02,7.064033125000000268e+01,-7.702000120000000152e+02
-1.449890662500000076e+02,7.096455000000000268e+01,-7.692000120000000152e+02
-1.446648475000000076e+02,7.096455000000000268e+01,-7.697000120000000152e+02
-1.446648475000000076e+02,7.096455000000000268e+01,-7.687000120000000152e+02
-1.446648475000000076e+02,7.128876875000000268e+01,-7.692000120000000152e+02
-1.440164100000000076e+02,3.335517500000000268e+01,-7.767000120000000152e+02
-1.440164100000000076e+02,3.303095625000000268e+01,-7.762000120000000152e+02
-1.440164100000000076e+02,3.335517500000000268e+01,-7.757000120000000152e+02
-1.440164100000000076e+02,3.400361250000000268e+01,-7.767000120000000152e+02
-1.440164100000000076e+02,3.367939375000000268e+01,-7.752000120000000152e+02
-1.443406287500000076e+02,3.400361250000000268e+01,-7.752000120000000152e+02
-1.440164100000000076e+02,3.400361250000000268e+01,-7.747000120000000152e+02
-1.440164100000000076e+02,3.465205000000000268e+01,-7.767000120000000152e+02
-1.443406287500000076e+02,3.465205000000000268e+01,-7.752000120000000152e+02
-1.440164100000000076e+02,3.465205000000000268e+01,-7.747000120000000152e+02
-1.440164100000000076e+02,3.530048750000000268e+01,-7.767000120000000152e+02
-1.443406287500000076e+02,3.530048750000000268e+01,-7.752000120000000152e+02
-1.440164100000000076e+02,3.530048750000000268e+01,-7.747000120000000152e+02
-1.440164100000000076e+02,3.594892500000000268e+01,-7.767000120000000152e+02
-1.440164100000000076e+02,3.562470625000000268e+01,-7.742000120000000152e+02
-1.440164100000000076e+02,3.562470625000000268e+01,-7.732000120000000152e+02
-1.440164100000000076e+02,3.562470625000000268e+01,-7.722000120000000152e+02
-1.440164100000000076e+02,3.562470625000000268e+01,-7.712000120000000152e+02
-1.440164100000000076e+02,3.594892500000000268e+01,-7.707000120000000152e+02
-1.440164100000000076e+02,3.659736250000000268e+01,-7.767000120000000152e+02
-1.440164100000000076e+02,3.659736250000000268e+01,-7.707000120000000152e+02
-1.443406287500000076e+02,3.659736250000000268e+01,-7.682000120000000152e+02
-1.443406287500000076e+02,3.724580000000000268e+01,-7.782000120000000152e+02
-1.440164100000000076e+02,3.724580000000000268e+01,-7.767000120000000152e+02
-1.443406287500000076e+02,3.724580000000000268e+01,-7.702000120000000152e+02
-1.440164100000000076e+02,3.724580000000000268e+01,-7.707000120000000152e+02
-1.443406287500000076e+02,3.724580000000000268e+01,-7.692000120000000152e+02
-1.440164100000000076e+02,3.724580000000000268e+01,-7.687000120000000152e+02
-1.440164100000000076e+02,3.692158125000000268e+01,-7.682000120000000152e+02
-1.440164100000000076e+02,3.724580000000000268e+01,-7.677000120000000152e+02
-1.440164100000000076e+02,3.724580000000000268e+01,-7.657000120000000152e+02
-1.440164100000000076e+02,3.692158125000000268e+01,-7.652000120000000152e+02
-1.440164100000000076e+02,3.724580000000000268e+01,-7.647000120000000152e+02
-1.440164100000000076e+02,3.789423750000000268e+01,-7.787000120000000152e+02
-1.440164100000000076e+02,3.757001875000000268e+01,-7.782000120000000152e+02
-1.440164100000000076e+02,3.789423750000000268e+01,-7.777000120000000152e+02
-1.440164100000000076e+02,3.789423750000000268e+01,-7.767000120000000152e+02
-1.440164100000000076e+02,3.757001875000000268e+01,-7.702000120000000152e+02
-1.440164100000000076e+02,3.757001875000000268e+01,-7.692000120000000152e+02
-1.440164100000000076e+02,3.757001875000000268e+01,-7.672000120000000152e+02
-1.443406287500000076e+02,3.789423750000000268e+01,-7.672000120000000152e+02
-1.440164100000000076e+02,3.789423750000000268e+01,-7.667000120000000152e+02
-1.440164100000000076e+02,3.789423750000000268e+01,-7.657000120000000152e+02
-1.440164100000000076e+02,3.789423750000000268e+01,-7.647000120000000152e+02
-1.443406287500000076e+02,3.854267500000000268e+01,-7.802000120000000152e+02
-1.440164100000000076e+02,3.854267500000000268e+01,-7.787000120000000152e+02
-1.440164100000000076e+02,3.821845625000000268e+01,-7.772000120000000152e+02
-1.440164100000000076e+02,3.821845625000000268e+01,-7.662000120000000152e+02
-1.440164100000000076e+02,3.854267500000000268e+01,-7.647000120000000152e+02
-1.443406287500000076e+02,3.919111250000000268e+01,-7.802000120000000152e+02
-1.440164100000000076e+02,3.919111250000000268e+01,-7.787000120000000152e+02
-1.440164100000000076e+02,3.919111250000000268e+01,-7.647000120000000152e+02
-1.443406287500000076e+02,3.983955000000000268e+01,-7.802000120000000152e+02
-1.440164100000000076e+02,3.983955000000000268e+01,-7.787000120000000152e+02
-1.440164100000000076e+02,3.983955000000000268e+01,-7.647000120000000152e+02
-1.443406287500000076e+02,4.048798750000000268e+01,-7.802000120000000152e+02
-1.440164100000000076e+02,4.016376875000000268e+01,-7.782000120000000152e+02
-1.443406287500000076e+02,4.048798750000000268e+01,-7.782000120000000152e+02
-1.440164100000000076e+02,4.048798750000000268e+01,-7.777000120000000152e+02
-1.440164100000000076e+02,4.016376875000000268e+01,-7.642000120000000152e+02
-1.440164100000000076e+02,4.048798750000000268e+01,-7.637000120000000152e+02
-1.443406287500000076e+02,4.113642500000000268e+01,-7.802000120000000152e+02
-1.443406287500000076e+02,4.113642500000000268e+01,-7.782000120000000152e+02
-1.440164100000000076e+02,4.113642500000000268e+01,-7.777000120000000152e+02
-1.440164100000000076e+02,4.113642500000000268e+01,-7.637000120000000152e+02
-1.443406287500000076e+02,4.178486250000000268e+01,-7.782000120000000152e+02
-1.440164100000000076e+02,4.178486250000000268e+01,-7.777000120000000152e+02
-1.440164100000000076e+02,4.178486250000000268e+01,-7.637000120000000152e+02
-1.443406287500000076e+02,4.243330000000000268e+01,-7.782000120000000152e+02
-1.440164100000000076e+02,4.243330000000000268e+01,-7.777000120000000152e+02
-1.440164100000000076e+02,4.243330000000000268e+01,-7.637000120000000152e+02
-1.443406287500000076e+02,4.308173750000000268e+01,-7.782000120000000152e+02
-1.440164100000000076e+02,4.308173750000000268e+01,-7.777000120000000152e+02
-1.440164100000000076e+02,4.308173750000000268e+01,-7.637000120000000152e+02
-1.443406287500000076e+02,4.373017500000000268e+01,-7.782000120000000152e+02
-1.440164100000000076e+02,4.373017500000000268e+01,-7.777000120000000152e+02
-1.440164100000000076e+02,4.373017500000000268e+01,-7.637000120000000152e+02
-1.443406287500000076e+02,4.437861250000000268e+01,-7.782000120000000152e+02
-1.440164100000000076e+02,4.437861250000000268e+01,-7.777000120000000152e+02
-1.440164100000000076e+02,4.405439375000000268e+01,-7.632000120000000152e+02
-1.443406287500000076e+02,4.437861250000000268e+01,-7.632000120000000152e+02
-1.440164100000000076e+02,4.437861250000000268e+01,-7.627000120000000152e+02
-1.443406287500000076e+02,4.502705000000000268e+01,-7.782000120000000152e+02
-1.440164100000000076e+02,4.502705000000000268e+01,-7.777000120000000152e+02
-1.440164100000000076e+02,4.502705000000000268e+01,-7.627000120000000152e+02
-1.443406287500000076e+02,4.567548750000000268e+01,-7.782000120000000152e+02
-1.440164100000000076e+02,4.567548750000000268e+01,-7.777000120000000152e+02
-1.440164100000000076e+02,4.567548750000000268e+01,-7.627000120000000152e+02
-1.443406287500000076e+02,4.632392500000000268e+01,-7.782000120000000152e+02
-1.440164100000000076e+02,4.632392500000000268e+01,-7.777000120000000152e+02
-1.440164100000000076e+02,4.632392500000000268e+01,-7.627000120000000152e+02
-1.440164100000000076e+02,4.697236250000000268e+01,-7.787000120000000152e+02
-1.440164100000000076e+02,4.664814375000000268e+01,-7.782000120000000152e+02
-1.440164100000000076e+02,4.697236250000000268e+01,-7.627000120000000152e+02
-1.440164100000000076e+02,4.762080000000000268e+01,-7.787000120000000152e+02
-1.443406287500000076e+02,4.762080000000000268e+01,-7.772000120000000152e+02
-1.440164100000000076e+02,4.729658125000000268e+01,-7.622000120000000152e+02
-1.443406287500000076e+02,4.762080000000000268e+01,-7.622000120000000152e+02
-1.440164100000000076e+02,4.729658125000000268e+01,-7.612000120000000152e+02
-1.443406287500000076e+02,4.762080000000000268e+01,-7.612000120000000152e+02
-1.440164100000000076e+02,4.762080000000000268e+01,-7.607000120000000152e+02
-1.440164100000000076e+02,4.794501875000000268e+01,-7.782000120000000152e+02
-1.443406287500000076e+02,4.826923750000000268e+01,-7.782000120000000152e+02
-1.440164100000000076e+02,4.794501875000000268e+01,-7.772000120000000152e+02
-1.440164100000000076e+02,4.826923750000000268e+01,-7.767000120000000152e+02
-1.443406287500000076e+02,4.826923750000000268e+01,-7.612000120000000152e+02
-1.440164100000000076e+02,4.826923750000000268e+01,-7.607000120000000152e+02
-1.440164100000000076e+02,4.859345625000000268e+01,-7.762000120000000152e+02
-1.443406287500000076e+02,4.891767500000000268e+01,-7.752000120000000152e+02
-1.440164100000000076e+02,4.891767500000000268e+01,-7.757000120000000152e+02
-1.443406287500000076e+02,4.891767500000000268e+01,-7.612000120000000152e+02
-1.440164100000000076e+02,4.891767500000000268e+01,-7.607000120000000152e+02
-1.440164100000000076e+02,4.924189375000000268e+01,-7.752000120000000152e+02
-1.440164100000000076e+02,4.924189375000000268e+01,-7.742000120000000152e+02
-1.443406287500000076e+02,4.956611250000000268e+01,-7.742000120000000152e+02
-1.440164100000000076e+02,4.956611250000000268e+01,-7.737000120000000152e+02
-1.443406287500000076e+02,4.956611250000000268e+01,-7.612000120000000152e+02
-1.440164100000000076e+02,4.956611250000000268e+01,-7.607000120000000152e+02
-1.440164100000000076e+02,4.989033125000000268e+01,-7.732000120000000152e+02
-1.440164100000000076e+02,5.021455000000000268e+01,-7.727000120000000152e+02
-1.443406287500000076e+02,5.021455000000000268e+01,-7.712000120000000152e+02
-1.440164100000000076e+02,4.989033125000000268e+01,-7.712000120000000152e+02
-1.440164100000000076e+02,5.021455000000000268e+01,-7.717000120000000152e+02
-1.440164100000000076e+02,5.021455000000000268e+01,-7.707000120000000152e+02
-1.443406287500000076e+02,5.021455000000000268e+01,-7.672000120000000152e+02
-1.440164100000000076e+02,4.989033125000000268e+01,-7.612000120000000152e+02
-1.440164100000000076e+02,5.021455000000000268e+01,-7.617000120000000152e+02
-1.440164100000000076e+02,5.053876875000000268e+01,-7.722000120000000152e+02
-1.440164100000000076e+02,5.053876875000000268e+01,-7.702000120000000152e+02
-1.440164100000000076e+02,5.053876875000000268e+01,-7.692000120000000152e+02
-1.440164100000000076e+02,5.053876875000000268e+01,-7.682000120000000152e+02
-1.440164100000000076e+02,5.053876875000000268e+01,-7.672000120000000152e+02
-1.443406287500000076e+02,5.086298750000000268e+01,-7.662000120000000152e+02
-1.440164100000000076e+02,5.086298750000000268e+01,-7.667000120000000152e+02
-1.440164100000000076e+02,5.086298750000000268e+01,-7.617000120000000152e+02
-1.440164100000000076e+02,5.118720625000000268e+01,-7.662000120000000152e+02
-1.440164100000000076e+02,5.151142500000000268e+01,-7.657000120000000152e+02
-1.440164100000000076e+02,5.151142500000000268e+01,-7.617000120000000152e+02
-1.443406287500000076e+02,5.215986250000000268e+01,-7.652000120000000152e+02
-1.440164100000000076e+02,5.215986250000000268e+01,-7.657000120000000152e+02
-1.440164100000000076e+02,5.215986250000000268e+01,-7.617000120000000152e+02
-1.443406287500000076e+02,5.280830000000000268e+01,-7.652000120000000152e+02
-1.440164100000000076e+02,5.280830000000000268e+01,-7.657000120000000152e+02
-1.440164100000000076e+02,5.280830000000000268e+01,-7.617000120000000152e+02
-1.440164100000000076e+02,5.313251875000000268e+01,-7.652000120000000152e+02
-1.440164100000000076e+02,5.345673750000000268e+01,-7.647000120000000152e+02
-1.440164100000000076e+02,5.345673750000000268e+01,-7.617000120000000152e+02
-1.440164100000000076e+02,5.410517500000000268e+01,-7.647000120000000152e+02
-1.440164100000000076e+02,5.410517500000000268e+01,-7.617000120000000152e+02
-1.440164100000000076e+02,5.442939375000000268e+01,-7.642000120000000152e+02
-1.440164100000000076e+02,5.475361250000000268e+01,-7.637000120000000152e+02
-1.440164100000000076e+02,5.475361250000000268e+01,-7.617000120000000152e+02
-1.440164100000000076e+02,5.540205000000000268e+01,-7.637000120000000152e+02
-1.440164100000000076e+02,5.540205000000000268e+01,-7.617000120000000152e+02
-1.440164100000000076e+02,5.605048750000000268e+01,-7.637000120000000152e+02
-1.440164100000000076e+02,5.605048750000000268e+01,-7.617000120000000152e+02
-1.443406287500000076e+02,5.669892500000000268e+01,-7.632000120000000152e+02
-1.440164100000000076e+02,5.669892500000000268e+01,-7.637000120000000152e+02
-1.440164100000000076e+02,5.669892500000000268e+01,-7.617000120000000152e+02
-1.443406287500000076e+02,5.734736250000000268e+01,-7.632000120000000152e+02
-1.440164100000000076e+02,5.734736250000000268e+01,-7.637000120000000152e+02
-1.440164100000000076e+02,5.734736250000000268e+01,-7.617000120000000152e+02
-1.443406287500000076e+02,5.799580000000000268e+01,-7.632000120000000152e+02
-1.440164100000000076e+02,5.799580000000000268e+01,-7.637000120000000152e+02
-1.440164100000000076e+02,5.799580000000000268e+01,-7.617000120000000152e+02
-1.443406287500000076e+02,5.864423750000000268e+01,-7.632000120000000152e+02
-1.440164100000000076e+02,5.864423750000000268e+01,-7.637000120000000152e+02
-1.440164100000000076e+02,5.864423750000000268e+01,-7.617000120000000152e+02
-1.443406287500000076e+02,5.929267500000000268e+01,-7.632000120000000152e+02
-1.440164100000000076e+02,5.929267500000000268e+01,-7.637000120000000152e+02
-1.443406287500000076e+02,5.929267500000000268e+01,-7.622000120000000152e+02
-1.440164100000000076e+02,5.929267500000000268e+01,-7.617000120000000152e+02
-1.443406287500000076e+02,5.994111250000000268e+01,-7.632000120000000152e+02
-1.440164100000000076e+02,5.994111250000000268e+01,-7.637000120000000152e+02
-1.443406287500000076e+02,5.994111250000000268e+01,-7.622000120000000152e+02
-1.440164100000000076e+02,5.994111250000000268e+01,-7.617000120000000152e+02
-1.440164100000000076e+02,6.026533125000000268e+01,-7.632000120000000152e+02
-1.440164100000000076e+02,6.026533125000000268e+01,-7.622000120000000152e+02
-1.443406287500000076e+02,6.577705000000000268e+01,-7.692000120000000152e+02
-1.443406287500000076e+02,6.642548750000000268e+01,-7.692000120000000152e+02
-1.443406287500000076e+02,6.707392500000000268e+01,-7.692000120000000152e+02
-1.443406287500000076e+02,6.772236250000000268e+01,-7.692000120000000152e+02
-1.443406287500000076e+02,6.837080000000000268e+01,-7.692000120000000152e+02
-1.443406287500000076e+02,6.901923750000000268e+01,-7.692000120000000152e+02
-1.443406287500000076e+02,6.966767500000000268e+01,-7.692000120000000152e+02
-1.443406287500000076e+02,7.031611250000000268e+01,-7.702000120000000152e+02
-1.443406287500000076e+02,7.031611250000000268e+01,-7.692000120000000152e+02
-1.443406287500000076e+02,7.096455000000000268e+01,-7.692000120000000152e+02
-1.433679725000000076e+02,3.335517500000000268e+01,-7.767000120000000152e+02
-1.433679725000000076e+02,3.303095625000000268e+01,-7.762000120000000152e+02
-1.433679725000000076e+02,3.303095625000000268e+01,-7.752000120000000152e+02
-1.436921912500000076e+02,3.335517500000000268e+01,-7.752000120000000152e+02
-1.433679725000000076e+02,3.335517500000000268e+01,-7.747000120000000152e+02
-1.433679725000000076e+02,3.400361250000000268e+01,-7.767000120000000152e+02
-1.433679725000000076e+02,3.400361250000000268e+01,-7.747000120000000152e+02
-1.433679725000000076e+02,3.465205000000000268e+01,-7.767000120000000152e+02
-1.433679725000000076e+02,3.465205000000000268e+01,-7.747000120000000152e+02
-1.433679725000000076e+02,3.530048750000000268e+01,-7.767000120000000152e+02
-1.433679725000000076e+02,3.530048750000000268e+01,-7.747000120000000152e+02
-1.436921912500000076e+02,3.530048750000000268e+01,-7.722000120000000152e+02
-1.433679725000000076e+02,3.530048750000000268e+01,-7.727000120000000152e+02
-1.433679725000000076e+02,3.497626875000000268e+01,-7.722000120000000152e+02
-1.433679725000000076e+02,3.530048750000000268e+01,-7.717000120000000152e+02
-1.433679725000000076e+02,3.594892500000000268e+01,-7.767000120000000152e+02
-1.433679725000000076e+02,3.562470625000000268e+01,-7.742000120000000152e+02
-1.433679725000000076e+02,3.562470625000000268e+01,-7.732000120000000152e+02
-1.433679725000000076e+02,3.562470625000000268e+01,-7.712000120000000152e+02
-1.433679725000000076e+02,3.594892500000000268e+01,-7.707000120000000152e+02
-1.433679725000000076e+02,3.659736250000000268e+01,-7.767000120000000152e+02
-1.433679725000000076e+02,3.659736250000000268e+01,-7.707000120000000152e+02
-1.433679725000000076e+02,3.724580000000000268e+01,-7.767000120000000152e+02
-1.433679725000000076e+02,3.724580000000000268e+01,-7.707000120000000152e+02
-1.436921912500000076e+02,3.724580000000000268e+01,-7.682000120000000152e+02
-1.433679725000000076e+02,3.692158125000000268e+01,-7.672000120000000152e+02
-1.433679725000000076e+02,3.724580000000000268e+01,-7.677000120000000152e+02
-1.436921912500000076e+02,3.724580000000000268e+01,-7.672000120000000152e+02
-1.433679725000000076e+02,3.724580000000000268e+01,-7.667000120000000152e+02
-1.433679725000000076e+02,3.724580000000000268e+01,-7.657000120000000152e+02
-1.433679725000000076e+02,3.692158125000000268e+01,-7.652000120000000152e+02
-1.433679725000000076e+02,3.724580000000000268e+01,-7.647000120000000152e+02
-1.436921912500000076e+02,3.789423750000000268e+01,-7.782000120000000152e+02
-1.433679725000000076e+02,3.789423750000000268e+01,-7.767000120000000152e+02
-1.433679725000000076e+02,3.757001875000000268e+01,-7.702000120000000152e+02
-1.433679725000000076e+02,3.757001875000000268e+01,-7.692000120000000152e+02
-1.433679725000000076e+02,3.757001875000000268e+01,-7.682000120000000152e+02
-1.433679725000000076e+02,3.757001875000000268e+01,-7.662000120000000152e+02
-1.436921912500000076e+02,3.789423750000000268e+01,-7.662000120000000152e+02
-1.433679725000000076e+02,3.789423750000000268e+01,-7.647000120000000152e+02
-1.436921912500000076e+02,3.854267500000000268e+01,-7.782000120000000152e+02
-1.436921912500000076e+02,3.854267500000000268e+01,-7.772000120000000152e+02
-1.433679725000000076e+02,3.854267500000000268e+01,-7.767000120000000152e+02
-1.433679725000000076e+02,3.854267500000000268e+01,-7.647000120000000152e+02
-1.436921912500000076e+02,3.919111250000000268e+01,-7.782000120000000152e+02
-1.436921912500000076e+02,3.919111250000000268e+01,-7.772000120000000152e+02
-1.433679725000000076e+02,3.919111250000000268e+01,-7.767000120000000152e+02
-1.433679725000000076e+02,3.919111250000000268e+01,-7.647000120000000152e+02
-1.436921912500000076e+02,3.983955000000000268e+01,-7.782000120000000152e+02
-1.436921912500000076e+02,3.983955000000000268e+01,-7.772000120000000152e+02
-1.433679725000000076e+02,3.983955000000000268e+01,-7.767000120000000152e+02
-1.433679725000000076e+02,3.983955000000000268e+01,-7.647000120000000152e+02
-1.433679725000000076e+02,4.016376875000000268e+01,-7.772000120000000152e+02
-1.433679725000000076e+02,4.048798750000000268e+01,-7.777000120000000152e+02
-1.433679725000000076e+02,4.016376875000000268e+01,-7.642000120000000152e+02
-1.433679725000000076e+02,4.048798750000000268e+01,-7.637000120000000152e+02
-1.433679725000000076e+02,4.113642500000000268e+01,-7.777000120000000152e+02
-1.433679725000000076e+02,4.113642500000000268e+01,-7.637000120000000152e+02
-1.436921912500000076e+02,4.113642500000000268e+01,-7.622000120000000152e+02
-1.433679725000000076e+02,4.113642500000000268e+01,-7.627000120000000152e+02
-1.433679725000000076e+02,4.081220625000000268e+01,-7.622000120000000152e+02
-1.433679725000000076e+02,4.113642500000000268e+01,-7.617000120000000152e+02
-1.433679725000000076e+02,4.178486250000000268e+01,-7.777000120000000152e+02
-1.433679725000000076e+02,4.178486250000000268e+01,-7.637000120000000152e+02
-1.436921912500000076e+02,4.178486250000000268e+01,-7.622000120000000152e+02
-1.433679725000000076e+02,4.178486250000000268e+01,-7.627000120000000152e+02
-1.433679725000000076e+02,4.178486250000000268e+01,-7.617000120000000152e+02
-1.433679725000000076e+02,4.243330000000000268e+01,-7.777000120000000152e+02
-1.433679725000000076e+02,4.210908125000000268e+01,-7.632000120000000152e+02
-1.436921912500000076e+02,4.243330000000000268e+01,-7.632000120000000152e+02
-1.436921912500000076e+02,4.243330000000000268e+01,-7.622000120000000152e+02
-1.433679725000000076e+02,4.243330000000000268e+01,-7.617000120000000152e+02
-1.433679725000000076e+02,4.308173750000000268e+01,-7.777000120000000152e+02
-1.436921912500000076e+02,4.308173750000000268e+01,-7.632000120000000152e+02
-1.436921912500000076e+02,4.308173750000000268e+01,-7.622000120000000152e+02
-1.433679725000000076e+02,4.308173750000000268e+01,-7.617000120000000152e+02
-1.433679725000000076e+02,4.373017500000000268e+01,-7.777000120000000152e+02
-1.436921912500000076e+02,4.373017500000000268e+01,-7.632000120000000152e+02
-1.436921912500000076e+02,4.373017500000000268e+01,-7.622000120000000152e+02
-1.433679725000000076e+02,4.373017500000000268e+01,-7.617000120000000152e+02
-1.433679725000000076e+02,4.405439375000000268e+01,-7.772000120000000152e+02
-1.436921912500000076e+02,4.437861250000000268e+01,-7.772000120000000152e+02
-1.433679725000000076e+02,4.437861250000000268e+01,-7.767000120000000152e+02
-1.436921912500000076e+02,4.437861250000000268e+01,-7.622000120000000152e+02
-1.433679725000000076e+02,4.437861250000000268e+01,-7.617000120000000152e+02
-1.436921912500000076e+02,4.502705000000000268e+01,-7.772000120000000152e+02
-1.433679725000000076e+02,4.502705000000000268e+01,-7.767000120000000152e+02
-1.436921912500000076e+02,4.502705000000000268e+01,-7.622000120000000152e+02
-1.433679725000000076e+02,4.502705000000000268e+01,-7.617000120000000152e+02
-1.436921912500000076e+02,4.567548750000000268e+01,-7.772000120000000152e+02
-1.433679725000000076e+02,4.567548750000000268e+01,-7.767000120000000152e+02
-1.436921912500000076e+02,4.567548750000000268e+01,-7.622000120000000152e+02
-1.433679725000000076e+02,4.567548750000000268e+01,-7.617000120000000152e+02
-1.436921912500000076e+02,4.632392500000000268e+01,-7.772000120000000152e+02
-1.433679725000000076e+02,4.632392500000000268e+01,-7.767000120000000152e+02
-1.436921912500000076e+02,4.632392500000000268e+01,-7.622000120000000152e+02
-1.433679725000000076e+02,4.599970625000000268e+01,-7.612000120000000152e+02
-1.436921912500000076e+02,4.632392500000000268e+01,-7.612000120000000152e+02
-1.433679725000000076e+02,4.632392500000000268e+01,-7.607000120000000152e+02
-1.436921912500000076e+02,4.697236250000000268e+01,-7.782000120000000152e+02
-1.436921912500000076e+02,4.697236250000000268e+01,-7.772000120000000152e+02
-1.433679725000000076e+02,4.697236250000000268e+01,-7.767000120000000152e+02
-1.436921912500000076e+02,4.697236250000000268e+01,-7.622000120000000152e+02
-1.436921912500000076e+02,4.697236250000000268e+01,-7.612000120000000152e+02
-1.433679725000000076e+02,4.697236250000000268e+01,-7.607000120000000152e+02
-1.436921912500000076e+02,4.762080000000000268e+01,-7.782000120000000152e+02
-1.436921912500000076e+02,4.762080000000000268e+01,-7.772000120000000152e+02
-1.433679725000000076e+02,4.762080000000000268e+01,-7.767000120000000152e+02
-1.433679725000000076e+02,4.762080000000000268e+01,-7.607000120000000152e+02
-1.433679725000000076e+02,4.826923750000000268e+01,-7.767000120000000152e+02
-1.433679725000000076e+02,4.826923750000000268e+01,-7.607000120000000152e+02
-1.436921912500000076e+02,4.891767500000000268e+01,-7.762000120000000152e+02
-1.433679725000000076e+02,4.891767500000000268e+01,-7.767000120000000152e+02
-1.433679725000000076e+02,4.891767500000000268e+01,-7.607000120000000152e+02
-1.433679725000000076e+02,4.924189375000000268e+01,-7.762000120000000152e+02
-1.433679725000000076e+02,4.924189375000000268e+01,-7.752000120000000152e+02
-1.433679725000000076e+02,4.924189375000000268e+01,-7.742000120000000152e+02
-1.436921912500000076e+02,4.956611250000000268e+01,-7.732000120000000152e+02
-1.433679725000000076e+02,4.924189375000000268e+01,-7.732000120000000152e+02
-1.433679725000000076e+02,4.956611250000000268e+01,-7.727000120000000152e+02
-1.433679725000000076e+02,4.956611250000000268e+01,-7.607000120000000152e+02
-1.436921912500000076e+02,5.021455000000000268e+01,-7.722000120000000152e+02
-1.433679725000000076e+02,4.989033125000000268e+01,-7.722000120000000152e+02
-1.433679725000000076e+02,4.989033125000000268e+01,-7.712000120000000152e+02
-1.436921912500000076e+02,5.021455000000000268e+01,-7.702000120000000152e+02
-1.433679725000000076e+02,4.989033125000000268e+01,-7.702000120000000152e+02
-1.436921912500000076e+02,5.021455000000000268e+01,-7.692000120000000152e+02
-1.433679725000000076e+02,4.989033125000000268e+01,-7.692000120000000152e+02
-1.436921912500000076e+02,5.021455000000000268e+01,-7.682000120000000152e+02
-1.433679725000000076e+02,4.989033125000000268e+01,-7.682000120000000152e+02
-1.433679725000000076e+02,5.021455000000000268e+01,-7.677000120000000152e+02
-1.436921912500000076e+02,5.021455000000000268e+01,-7.612000120000000152e+02
-1.433679725000000076e+02,5.021455000000000268e+01,-7.607000120000000152e+02
-1.433679725000000076e+02,5.053876875000000268e+01,-7.672000120000000152e+02
-1.433679725000000076e+02,5.086298750000000268e+01,-7.667000120000000152e+02
-1.436921912500000076e+02,5.086298750000000268e+01,-7.612000120000000152e+02
-1.433679725000000076e+02,5.086298750000000268e+01,-7.607000120000000152e+02
-1.436921912500000076e+02,5.151142500000000268e+01,-7.662000120000000152e+02
-1.433679725000000076e+02,5.151142500000000268e+01,-7.667000120000000152e+02
-1.433679725000000076e+02,5.118720625000000268e+01,-7.612000120000000152e+02
-1.433679725000000076e+02,5.151142500000000268e+01,-7.617000120000000152e+02
-1.433679725000000076e+02,5.183564375000000268e+01,-7.662000120000000152e+02
-1.433679725000000076e+02,5.215986250000000268e+01,-7.657000120000000152e+02
-1.433679725000000076e+02,5.215986250000000268e+01,-7.617000120000000152e+02
