-2.095898439999999994e+02,-2.067187519999999950e+02,-2.870000000000000000e+02
-2.091796879999999987e+02,-2.067187519999999950e+02,-2.876250000000000000e+02
-2.091796879999999987e+02,-2.071289079999999956e+02,-2.870000000000000000e+02
-2.091796879999999987e+02,-2.067187519999999950e+02,-2.863750000000000000e+02
-2.095898439999999994e+02,-2.058984399999999937e+02,-2.870000000000000000e+02
-2.091796879999999987e+02,-2.058984399999999937e+02,-2.876250000000000000e+02
-2.091796879999999987e+02,-2.058984399999999937e+02,-2.863750000000000000e+02
-2.095898439999999994e+02,-2.058984399999999937e+02,-2.845000000000000000e+02
-2.091796879999999987e+02,-2.058984399999999937e+02,-2.851250000000000000e+02
-2.091796879999999987e+02,-2.063085959999999943e+02,-2.845000000000000000e+02
-2.095898439999999994e+02,-2.050781279999999924e+02,-2.870000000000000000e+02
-2.091796879999999987e+02,-2.050781279999999924e+02,-2.876250000000000000e+02
-2.091796879999999987e+02,-2.050781279999999924e+02,-2.863750000000000000e+02
-2.095898439999999994e+02,-2.050781279999999924e+02,-2.845000000000000000e+02
-2.091796879999999987e+02,-2.050781279999999924e+02,-2.851250000000000000e+02
-2.095898439999999994e+02,-2.042578159999999912e+02,-2.870000000000000000e+02
-2.091796879999999987e+02,-2.042578159999999912e+02,-2.876250000000000000e+02
-2.091796879999999987e+02,-2.042578159999999912e+02,-2.863750000000000000e+02
-2.095898439999999994e+02,-2.042578159999999912e+02,-2.845000000000000000e+02
-2.091796879999999987e+02,-2.042578159999999912e+02,-2.851250000000000000e+02
-2.091796879999999987e+02,-2.038476599999999905e+02,-2.870000000000000000e+02
-2.091796879999999987e+02,-2.038476599999999905e+02,-2.845000000000000000e+02
-2.087695319999999981e+02,-2.083593759999999975e+02,-2.870000000000000000e+02
-2.083593759999999975e+02,-2.083593759999999975e+02,-2.876250000000000000e+02
-2.083593759999999975e+02,-2.087695319999999981e+02,-2.870000000000000000e+02
-2.083593759999999975e+02,-2.083593759999999975e+02,-2.863750000000000000e+02
-2.087695319999999981e+02,-2.075390639999999962e+02,-2.870000000000000000e+02
-2.083593759999999975e+02,-2.075390639999999962e+02,-2.876250000000000000e+02
-2.083593759999999975e+02,-2.075390639999999962e+02,-2.863750000000000000e+02
-2.087695319999999981e+02,-2.075390639999999962e+02,-2.845000000000000000e+02
-2.083593759999999975e+02,-2.075390639999999962e+02,-2.851250000000000000e+02
-2.083593759999999975e+02,-2.079492199999999968e+02,-2.845000000000000000e+02
-2.087695319999999981e+02,-2.067187519999999950e+02,-2.895000000000000000e+02
-2.083593759999999975e+02,-2.067187519999999950e+02,-2.901250000000000000e+02
-2.083593759999999975e+02,-2.071289079999999956e+02,-2.895000000000000000e+02
-2.083593759999999975e+02,-2.071289079999999956e+02,-2.882500000000000000e+02
-2.087695319999999981e+02,-2.067187519999999950e+02,-2.882500000000000000e+02
-2.083593759999999975e+02,-2.071289079999999956e+02,-2.857500000000000000e+02
-2.087695319999999981e+02,-2.067187519999999950e+02,-2.857500000000000000e+02
-2.087695319999999981e+02,-2.067187519999999950e+02,-2.845000000000000000e+02
-2.087695319999999981e+02,-2.058984399999999937e+02,-2.895000000000000000e+02
-2.083593759999999975e+02,-2.058984399999999937e+02,-2.901250000000000000e+02
-2.087695319999999981e+02,-2.058984399999999937e+02,-2.882500000000000000e+02
-2.087695319999999981e+02,-2.058984399999999937e+02,-2.857500000000000000e+02
-2.087695319999999981e+02,-2.050781279999999924e+02,-2.895000000000000000e+02
-2.083593759999999975e+02,-2.050781279999999924e+02,-2.901250000000000000e+02
-2.087695319999999981e+02,-2.050781279999999924e+02,-2.882500000000000000e+02
-2.087695319999999981e+02,-2.050781279999999924e+02,-2.857500000000000000e+02
-2.087695319999999981e+02,-2.042578159999999912e+02,-2.895000000000000000e+02
-2.083593759999999975e+02,-2.042578159999999912e+02,-2.901250000000000000e+02
-2.087695319999999981e+02,-2.042578159999999912e+02,-2.882500000000000000e+02
-2.087695319999999981e+02,-2.042578159999999912e+02,-2.857500000000000000e+02
-2.087695319999999981e+02,-2.034375039999999899e+02,-2.895000000000000000e+02
-2.083593759999999975e+02,-2.034375039999999899e+02,-2.901250000000000000e+02
-2.087695319999999981e+02,-2.034375039999999899e+02,-2.882500000000000000e+02
-2.087695319999999981e+02,-2.034375039999999899e+02,-2.870000000000000000e+02
-2.083593759999999975e+02,-2.034375039999999899e+02,-2.863750000000000000e+02
-2.083593759999999975e+02,-2.038476599999999905e+02,-2.857500000000000000e+02
-2.083593759999999975e+02,-2.038476599999999905e+02,-2.845000000000000000e+02
-2.083593759999999975e+02,-2.030273479999999893e+02,-2.895000000000000000e+02
-2.083593759999999975e+02,-2.030273479999999893e+02,-2.882500000000000000e+02
-2.087695319999999981e+02,-2.026171919999999886e+02,-2.870000000000000000e+02
-2.083593759999999975e+02,-2.026171919999999886e+02,-2.876250000000000000e+02
-2.083593759999999975e+02,-2.026171919999999886e+02,-2.863750000000000000e+02
-2.083593759999999975e+02,-2.022070359999999880e+02,-2.870000000000000000e+02
-2.079492199999999968e+02,-2.091796879999999987e+02,-2.870000000000000000e+02
-2.075390639999999962e+02,-2.091796879999999987e+02,-2.876250000000000000e+02
-2.075390639999999962e+02,-2.095898439999999994e+02,-2.870000000000000000e+02
-2.075390639999999962e+02,-2.091796879999999987e+02,-2.863750000000000000e+02
-2.075390639999999962e+02,-2.083593759999999975e+02,-2.876250000000000000e+02
-2.075390639999999962e+02,-2.083593759999999975e+02,-2.863750000000000000e+02
-2.079492199999999968e+02,-2.075390639999999962e+02,-2.895000000000000000e+02
-2.075390639999999962e+02,-2.075390639999999962e+02,-2.901250000000000000e+02
-2.075390639999999962e+02,-2.079492199999999968e+02,-2.895000000000000000e+02
-2.075390639999999962e+02,-2.079492199999999968e+02,-2.882500000000000000e+02
-2.079492199999999968e+02,-2.075390639999999962e+02,-2.882500000000000000e+02
-2.075390639999999962e+02,-2.079492199999999968e+02,-2.857500000000000000e+02
-2.079492199999999968e+02,-2.075390639999999962e+02,-2.857500000000000000e+02
-2.075390639999999962e+02,-2.079492199999999968e+02,-2.845000000000000000e+02
-2.075390639999999962e+02,-2.067187519999999950e+02,-2.901250000000000000e+02
-2.075390639999999962e+02,-2.058984399999999937e+02,-2.901250000000000000e+02
-2.075390639999999962e+02,-2.050781279999999924e+02,-2.901250000000000000e+02
-2.075390639999999962e+02,-2.042578159999999912e+02,-2.901250000000000000e+02
-2.075390639999999962e+02,-2.034375039999999899e+02,-2.901250000000000000e+02
-2.079492199999999968e+02,-2.034375039999999899e+02,-2.857500000000000000e+02
-2.079492199999999968e+02,-2.034375039999999899e+02,-2.845000000000000000e+02
-2.079492199999999968e+02,-2.026171919999999886e+02,-2.895000000000000000e+02
-2.075390639999999962e+02,-2.026171919999999886e+02,-2.901250000000000000e+02
-2.079492199999999968e+02,-2.026171919999999886e+02,-2.882500000000000000e+02
-2.075390639999999962e+02,-2.030273479999999893e+02,-2.857500000000000000e+02
-2.075390639999999962e+02,-2.026171919999999886e+02,-2.863750000000000000e+02
-2.075390639999999962e+02,-2.030273479999999893e+02,-2.845000000000000000e+02
-2.075390639999999962e+02,-2.022070359999999880e+02,-2.895000000000000000e+02
-2.075390639999999962e+02,-2.022070359999999880e+02,-2.882500000000000000e+02
-2.079492199999999968e+02,-2.017968799999999874e+02,-2.870000000000000000e+02
-2.075390639999999962e+02,-2.017968799999999874e+02,-2.876250000000000000e+02
-2.075390639999999962e+02,-2.017968799999999874e+02,-2.863750000000000000e+02
-2.075390639999999962e+02,-2.013867239999999867e+02,-2.870000000000000000e+02
-2.067187519999999950e+02,-2.091796879999999987e+02,-2.876250000000000000e+02
-2.067187519999999950e+02,-2.095898439999999994e+02,-2.870000000000000000e+02
-2.067187519999999950e+02,-2.091796879999999987e+02,-2.863750000000000000e+02
-2.071289079999999956e+02,-2.083593759999999975e+02,-2.882500000000000000e+02
-2.067187519999999950e+02,-2.083593759999999975e+02,-2.888750000000000000e+02
-2.067187519999999950e+02,-2.087695319999999981e+02,-2.882500000000000000e+02
-2.067187519999999950e+02,-2.087695319999999981e+02,-2.857500000000000000e+02
-2.071289079999999956e+02,-2.083593759999999975e+02,-2.857500000000000000e+02
-2.067187519999999950e+02,-2.087695319999999981e+02,-2.845000000000000000e+02
-2.071289079999999956e+02,-2.083593759999999975e+02,-2.845000000000000000e+02
-2.067187519999999950e+02,-2.075390639999999962e+02,-2.901250000000000000e+02
-2.067187519999999950e+02,-2.079492199999999968e+02,-2.895000000000000000e+02
-2.067187519999999950e+02,-2.067187519999999950e+02,-2.901250000000000000e+02
-2.067187519999999950e+02,-2.058984399999999937e+02,-2.901250000000000000e+02
-2.067187519999999950e+02,-2.050781279999999924e+02,-2.901250000000000000e+02
-2.071289079999999956e+02,-2.042578159999999912e+02,-2.907500000000000000e+02
-2.067187519999999950e+02,-2.046679719999999918e+02,-2.907500000000000000e+02
-2.071289079999999956e+02,-2.034375039999999899e+02,-2.907500000000000000e+02
-2.071289079999999956e+02,-2.026171919999999886e+02,-2.907500000000000000e+02
-2.071289079999999956e+02,-2.026171919999999886e+02,-2.857500000000000000e+02
-2.067187519999999950e+02,-2.026171919999999886e+02,-2.851250000000000000e+02
-2.067187519999999950e+02,-2.030273479999999893e+02,-2.845000000000000000e+02
-2.071289079999999956e+02,-2.017968799999999874e+02,-2.895000000000000000e+02
-2.071289079999999956e+02,-2.017968799999999874e+02,-2.907500000000000000e+02
-2.071289079999999956e+02,-2.017968799999999874e+02,-2.882500000000000000e+02
-2.071289079999999956e+02,-2.017968799999999874e+02,-2.857500000000000000e+02
-2.067187519999999950e+02,-2.017968799999999874e+02,-2.851250000000000000e+02
-2.067187519999999950e+02,-2.009765679999999861e+02,-2.901250000000000000e+02
-2.067187519999999950e+02,-2.013867239999999867e+02,-2.895000000000000000e+02
-2.071289079999999956e+02,-2.009765679999999861e+02,-2.907500000000000000e+02
-2.067187519999999950e+02,-2.013867239999999867e+02,-2.882500000000000000e+02
-2.071289079999999956e+02,-2.009765679999999861e+02,-2.870000000000000000e+02
-2.067187519999999950e+02,-2.009765679999999861e+02,-2.876250000000000000e+02
-2.067187519999999950e+02,-2.009765679999999861e+02,-2.863750000000000000e+02
-2.067187519999999950e+02,-2.013867239999999867e+02,-2.857500000000000000e+02
-2.067187519999999950e+02,-2.005664120000000139e+02,-2.907500000000000000e+02
-2.067187519999999950e+02,-2.005664120000000139e+02,-2.870000000000000000e+02
-2.063085959999999943e+02,-2.091796879999999987e+02,-2.882500000000000000e+02
-2.058984399999999937e+02,-2.091796879999999987e+02,-2.888750000000000000e+02
-2.058984399999999937e+02,-2.095898439999999994e+02,-2.882500000000000000e+02
-2.058984399999999937e+02,-2.095898439999999994e+02,-2.870000000000000000e+02
-2.058984399999999937e+02,-2.091796879999999987e+02,-2.863750000000000000e+02
-2.058984399999999937e+02,-2.083593759999999975e+02,-2.888750000000000000e+02
-2.058984399999999937e+02,-2.087695319999999981e+02,-2.857500000000000000e+02
-2.058984399999999937e+02,-2.087695319999999981e+02,-2.845000000000000000e+02
-2.058984399999999937e+02,-2.075390639999999962e+02,-2.901250000000000000e+02
-2.058984399999999937e+02,-2.079492199999999968e+02,-2.895000000000000000e+02
-2.058984399999999937e+02,-2.067187519999999950e+02,-2.901250000000000000e+02
-2.063085959999999943e+02,-2.058984399999999937e+02,-2.907500000000000000e+02
-2.058984399999999937e+02,-2.063085959999999943e+02,-2.907500000000000000e+02
-2.063085959999999943e+02,-2.050781279999999924e+02,-2.907500000000000000e+02
-2.063085959999999943e+02,-2.026171919999999886e+02,-2.845000000000000000e+02
-2.058984399999999937e+02,-2.022070359999999880e+02,-2.845000000000000000e+02
-2.058984399999999937e+02,-2.017968799999999874e+02,-2.851250000000000000e+02
-2.058984399999999937e+02,-2.013867239999999867e+02,-2.895000000000000000e+02
-2.058984399999999937e+02,-2.009765679999999861e+02,-2.901250000000000000e+02
-2.063085959999999943e+02,-2.009765679999999861e+02,-2.882500000000000000e+02
-2.058984399999999937e+02,-2.009765679999999861e+02,-2.888750000000000000e+02
-2.058984399999999937e+02,-2.013867239999999867e+02,-2.857500000000000000e+02
-2.058984399999999937e+02,-2.009765679999999861e+02,-2.863750000000000000e+02
-2.058984399999999937e+02,-2.005664120000000139e+02,-2.907500000000000000e+02
-2.058984399999999937e+02,-2.005664120000000139e+02,-2.882500000000000000e+02
-2.058984399999999937e+02,-2.005664120000000139e+02,-2.870000000000000000e+02
-2.050781279999999924e+02,-2.091796879999999987e+02,-2.888750000000000000e+02
-2.050781279999999924e+02,-2.095898439999999994e+02,-2.882500000000000000e+02
-2.050781279999999924e+02,-2.095898439999999994e+02,-2.870000000000000000e+02
-2.050781279999999924e+02,-2.095898439999999994e+02,-2.857500000000000000e+02
-2.054882839999999931e+02,-2.091796879999999987e+02,-2.857500000000000000e+02
-2.050781279999999924e+02,-2.091796879999999987e+02,-2.851250000000000000e+02
-2.050781279999999924e+02,-2.083593759999999975e+02,-2.888750000000000000e+02
-2.050781279999999924e+02,-2.087695319999999981e+02,-2.845000000000000000e+02
-2.050781279999999924e+02,-2.075390639999999962e+02,-2.901250000000000000e+02
-2.050781279999999924e+02,-2.079492199999999968e+02,-2.895000000000000000e+02
-2.054882839999999931e+02,-2.067187519999999950e+02,-2.907500000000000000e+02
-2.050781279999999924e+02,-2.071289079999999956e+02,-2.907500000000000000e+02
-2.050781279999999924e+02,-2.022070359999999880e+02,-2.845000000000000000e+02
-2.050781279999999924e+02,-2.017968799999999874e+02,-2.851250000000000000e+02
-2.054882839999999931e+02,-2.009765679999999861e+02,-2.895000000000000000e+02
-2.054882839999999931e+02,-2.009765679999999861e+02,-2.857500000000000000e+02
-2.050781279999999924e+02,-2.009765679999999861e+02,-2.851250000000000000e+02
-2.050781279999999924e+02,-2.005664120000000139e+02,-2.895000000000000000e+02
-2.050781279999999924e+02,-2.005664120000000139e+02,-2.907500000000000000e+02
-2.050781279999999924e+02,-2.005664120000000139e+02,-2.882500000000000000e+02
-2.050781279999999924e+02,-2.005664120000000139e+02,-2.870000000000000000e+02
-2.050781279999999924e+02,-2.005664120000000139e+02,-2.857500000000000000e+02
-2.042578159999999912e+02,-2.091796879999999987e+02,-2.888750000000000000e+02
-2.042578159999999912e+02,-2.095898439999999994e+02,-2.882500000000000000e+02
-2.042578159999999912e+02,-2.095898439999999994e+02,-2.870000000000000000e+02
-2.046679719999999918e+02,-2.091796879999999987e+02,-2.857500000000000000e+02
-2.042578159999999912e+02,-2.091796879999999987e+02,-2.863750000000000000e+02
-2.042578159999999912e+02,-2.095898439999999994e+02,-2.845000000000000000e+02
-2.042578159999999912e+02,-2.091796879999999987e+02,-2.851250000000000000e+02
-2.046679719999999918e+02,-2.091796879999999987e+02,-2.845000000000000000e+02
-2.042578159999999912e+02,-2.083593759999999975e+02,-2.888750000000000000e+02
-2.042578159999999912e+02,-2.087695319999999981e+02,-2.857500000000000000e+02
-2.042578159999999912e+02,-2.075390639999999962e+02,-2.901250000000000000e+02
-2.042578159999999912e+02,-2.079492199999999968e+02,-2.895000000000000000e+02
-2.042578159999999912e+02,-2.071289079999999956e+02,-2.907500000000000000e+02
-2.042578159999999912e+02,-2.022070359999999880e+02,-2.845000000000000000e+02
-2.042578159999999912e+02,-2.017968799999999874e+02,-2.851250000000000000e+02
-2.042578159999999912e+02,-2.009765679999999861e+02,-2.851250000000000000e+02
-2.042578159999999912e+02,-2.001562559999999849e+02,-2.901250000000000000e+02
-2.046679719999999918e+02,-2.001562559999999849e+02,-2.907500000000000000e+02
-2.042578159999999912e+02,-2.005664120000000139e+02,-2.895000000000000000e+02
-2.046679719999999918e+02,-2.001562559999999849e+02,-2.882500000000000000e+02
-2.042578159999999912e+02,-2.001562559999999849e+02,-2.888750000000000000e+02
-2.042578159999999912e+02,-2.001562559999999849e+02,-2.876250000000000000e+02
-2.042578159999999912e+02,-2.005664120000000139e+02,-2.870000000000000000e+02
-2.042578159999999912e+02,-2.005664120000000139e+02,-2.857500000000000000e+02
-2.042578159999999912e+02,-1.997461000000000126e+02,-2.907500000000000000e+02
-2.042578159999999912e+02,-1.997461000000000126e+02,-2.882500000000000000e+02
-2.034375039999999899e+02,-2.091796879999999987e+02,-2.888750000000000000e+02
-2.034375039999999899e+02,-2.095898439999999994e+02,-2.882500000000000000e+02
-2.034375039999999899e+02,-2.095898439999999994e+02,-2.870000000000000000e+02
-2.034375039999999899e+02,-2.091796879999999987e+02,-2.863750000000000000e+02
-2.034375039999999899e+02,-2.091796879999999987e+02,-2.851250000000000000e+02
-2.034375039999999899e+02,-2.095898439999999994e+02,-2.845000000000000000e+02
-2.038476599999999905e+02,-2.083593759999999975e+02,-2.895000000000000000e+02
-2.034375039999999899e+02,-2.083593759999999975e+02,-2.901250000000000000e+02
-2.034375039999999899e+02,-2.087695319999999981e+02,-2.895000000000000000e+02
-2.034375039999999899e+02,-2.087695319999999981e+02,-2.857500000000000000e+02
-2.034375039999999899e+02,-2.075390639999999962e+02,-2.901250000000000000e+02
-2.034375039999999899e+02,-2.071289079999999956e+02,-2.907500000000000000e+02
-2.034375039999999899e+02,-2.022070359999999880e+02,-2.845000000000000000e+02
-2.034375039999999899e+02,-2.017968799999999874e+02,-2.851250000000000000e+02
-2.034375039999999899e+02,-2.009765679999999861e+02,-2.851250000000000000e+02
-2.034375039999999899e+02,-2.005664120000000139e+02,-2.895000000000000000e+02
-2.034375039999999899e+02,-2.001562559999999849e+02,-2.901250000000000000e+02
-2.034375039999999899e+02,-2.001562559999999849e+02,-2.888750000000000000e+02
-2.034375039999999899e+02,-2.005664120000000139e+02,-2.870000000000000000e+02
-2.034375039999999899e+02,-2.001562559999999849e+02,-2.876250000000000000e+02
-2.034375039999999899e+02,-2.005664120000000139e+02,-2.857500000000000000e+02
-2.034375039999999899e+02,-1.997461000000000126e+02,-2.907500000000000000e+02
-2.034375039999999899e+02,-1.997461000000000126e+02,-2.882500000000000000e+02
-2.026171919999999886e+02,-2.091796879999999987e+02,-2.888750000000000000e+02
-2.026171919999999886e+02,-2.095898439999999994e+02,-2.882500000000000000e+02
-2.026171919999999886e+02,-2.095898439999999994e+02,-2.870000000000000000e+02
-2.026171919999999886e+02,-2.091796879999999987e+02,-2.863750000000000000e+02
-2.026171919999999886e+02,-2.091796879999999987e+02,-2.851250000000000000e+02
-2.026171919999999886e+02,-2.095898439999999994e+02,-2.845000000000000000e+02
-2.030273479999999893e+02,-2.083593759999999975e+02,-2.895000000000000000e+02
-2.026171919999999886e+02,-2.083593759999999975e+02,-2.888750000000000000e+02
-2.026171919999999886e+02,-2.087695319999999981e+02,-2.857500000000000000e+02
-2.026171919999999886e+02,-2.079492199999999968e+02,-2.907500000000000000e+02
-2.026171919999999886e+02,-2.079492199999999968e+02,-2.895000000000000000e+02
-2.030273479999999893e+02,-2.075390639999999962e+02,-2.907500000000000000e+02
-2.026171919999999886e+02,-2.022070359999999880e+02,-2.845000000000000000e+02
-2.026171919999999886e+02,-2.017968799999999874e+02,-2.851250000000000000e+02
-2.026171919999999886e+02,-2.009765679999999861e+02,-2.851250000000000000e+02
-2.026171919999999886e+02,-2.005664120000000139e+02,-2.895000000000000000e+02
-2.026171919999999886e+02,-2.001562559999999849e+02,-2.901250000000000000e+02
-2.026171919999999886e+02,-2.001562559999999849e+02,-2.888750000000000000e+02
-2.026171919999999886e+02,-2.005664120000000139e+02,-2.870000000000000000e+02
-2.026171919999999886e+02,-2.001562559999999849e+02,-2.876250000000000000e+02
-2.026171919999999886e+02,-2.005664120000000139e+02,-2.857500000000000000e+02
-2.026171919999999886e+02,-1.997461000000000126e+02,-2.907500000000000000e+02
-2.026171919999999886e+02,-1.997461000000000126e+02,-2.882500000000000000e+02
-2.022070359999999880e+02,-2.091796879999999987e+02,-2.882500000000000000e+02
-2.017968799999999874e+02,-2.091796879999999987e+02,-2.876250000000000000e+02
-2.017968799999999874e+02,-2.095898439999999994e+02,-2.870000000000000000e+02
-2.017968799999999874e+02,-2.091796879999999987e+02,-2.863750000000000000e+02
-2.017968799999999874e+02,-2.091796879999999987e+02,-2.851250000000000000e+02
-2.017968799999999874e+02,-2.095898439999999994e+02,-2.845000000000000000e+02
-2.017968799999999874e+02,-2.083593759999999975e+02,-2.888750000000000000e+02
-2.017968799999999874e+02,-2.087695319999999981e+02,-2.882500000000000000e+02
-2.022070359999999880e+02,-2.083593759999999975e+02,-2.857500000000000000e+02
-2.017968799999999874e+02,-2.083593759999999975e+02,-2.863750000000000000e+02
-2.017968799999999874e+02,-2.083593759999999975e+02,-2.851250000000000000e+02
-2.017968799999999874e+02,-2.079492199999999968e+02,-2.895000000000000000e+02
-2.017968799999999874e+02,-2.079492199999999968e+02,-2.907500000000000000e+02
-2.017968799999999874e+02,-2.079492199999999968e+02,-2.857500000000000000e+02
-2.017968799999999874e+02,-2.022070359999999880e+02,-2.845000000000000000e+02
-2.017968799999999874e+02,-2.017968799999999874e+02,-2.851250000000000000e+02
-2.017968799999999874e+02,-2.009765679999999861e+02,-2.851250000000000000e+02
-2.017968799999999874e+02,-2.005664120000000139e+02,-2.895000000000000000e+02
-2.017968799999999874e+02,-2.001562559999999849e+02,-2.901250000000000000e+02
-2.017968799999999874e+02,-2.001562559999999849e+02,-2.888750000000000000e+02
-2.017968799999999874e+02,-2.005664120000000139e+02,-2.870000000000000000e+02
-2.017968799999999874e+02,-2.001562559999999849e+02,-2.876250000000000000e+02
-2.017968799999999874e+02,-2.005664120000000139e+02,-2.857500000000000000e+02
-2.017968799999999874e+02,-1.997461000000000126e+02,-2.907500000000000000e+02
-2.017968799999999874e+02,-1.997461000000000126e+02,-2.882500000000000000e+02
-2.013867239999999867e+02,-2.091796879999999987e+02,-2.870000000000000000e+02
-2.009765679999999861e+02,-2.091796879999999987e+02,-2.851250000000000000e+02
-2.009765679999999861e+02,-2.095898439999999994e+02,-2.845000000000000000e+02
-2.009765679999999861e+02,-2.083593759999999975e+02,-2.888750000000000000e+02
-2.009765679999999861e+02,-2.087695319999999981e+02,-2.882500000000000000e+02
-2.009765679999999861e+02,-2.087695319999999981e+02,-2.870000000000000000e+02
-2.009765679999999861e+02,-2.083593759999999975e+02,-2.863750000000000000e+02
-2.009765679999999861e+02,-2.083593759999999975e+02,-2.851250000000000000e+02
-2.009765679999999861e+02,-2.075390639999999962e+02,-2.901250000000000000e+02
-2.013867239999999867e+02,-2.075390639999999962e+02,-2.907500000000000000e+02
-2.009765679999999861e+02,-2.079492199999999968e+02,-2.895000000000000000e+02
-2.013867239999999867e+02,-2.075390639999999962e+02,-2.857500000000000000e+02
-2.009765679999999861e+02,-2.075390639999999962e+02,-2.863750000000000000e+02
-2.009765679999999861e+02,-2.075390639999999962e+02,-2.851250000000000000e+02
-2.009765679999999861e+02,-2.071289079999999956e+02,-2.907500000000000000e+02
-2.009765679999999861e+02,-2.071289079999999956e+02,-2.857500000000000000e+02
-2.009765679999999861e+02,-2.022070359999999880e+02,-2.845000000000000000e+02
-2.009765679999999861e+02,-2.017968799999999874e+02,-2.851250000000000000e+02
-2.013867239999999867e+02,-2.009765679999999861e+02,-2.857500000000000000e+02
-2.009765679999999861e+02,-2.013867239999999867e+02,-2.857500000000000000e+02
-2.009765679999999861e+02,-2.009765679999999861e+02,-2.863750000000000000e+02
-2.013867239999999867e+02,-2.001562559999999849e+02,-2.907500000000000000e+02
-2.009765679999999861e+02,-2.005664120000000139e+02,-2.907500000000000000e+02
-2.009765679999999861e+02,-2.005664120000000139e+02,-2.895000000000000000e+02
-2.013867239999999867e+02,-2.001562559999999849e+02,-2.882500000000000000e+02
-2.009765679999999861e+02,-2.005664120000000139e+02,-2.882500000000000000e+02
-2.009765679999999861e+02,-2.005664120000000139e+02,-2.870000000000000000e+02
-2.005664120000000139e+02,-2.091796879999999987e+02,-2.845000000000000000e+02
-2.005664120000000139e+02,-2.083593759999999975e+02,-2.882500000000000000e+02
-2.005664120000000139e+02,-2.083593759999999975e+02,-2.870000000000000000e+02
-2.005664120000000139e+02,-2.083593759999999975e+02,-2.845000000000000000e+02
-2.005664120000000139e+02,-2.075390639999999962e+02,-2.895000000000000000e+02
-2.005664120000000139e+02,-2.075390639999999962e+02,-2.882500000000000000e+02
-2.001562559999999849e+02,-2.075390639999999962e+02,-2.876250000000000000e+02
-2.001562559999999849e+02,-2.079492199999999968e+02,-2.870000000000000000e+02
-2.001562559999999849e+02,-2.075390639999999962e+02,-2.863750000000000000e+02
-2.005664120000000139e+02,-2.075390639999999962e+02,-2.845000000000000000e+02
-2.001562559999999849e+02,-2.071289079999999956e+02,-2.895000000000000000e+02
-2.001562559999999849e+02,-2.071289079999999956e+02,-2.907500000000000000e+02
-2.001562559999999849e+02,-2.071289079999999956e+02,-2.882500000000000000e+02
-2.005664120000000139e+02,-2.067187519999999950e+02,-2.857500000000000000e+02
-2.001562559999999849e+02,-2.067187519999999950e+02,-2.863750000000000000e+02
-2.005664120000000139e+02,-2.067187519999999950e+02,-2.845000000000000000e+02
-2.001562559999999849e+02,-2.063085959999999943e+02,-2.857500000000000000e+02
-2.001562559999999849e+02,-2.058984399999999937e+02,-2.851250000000000000e+02
-2.005664120000000139e+02,-2.058984399999999937e+02,-2.845000000000000000e+02
-2.001562559999999849e+02,-2.054882839999999931e+02,-2.845000000000000000e+02
-2.005664120000000139e+02,-2.026171919999999886e+02,-2.857500000000000000e+02
-2.001562559999999849e+02,-2.030273479999999893e+02,-2.857500000000000000e+02
-2.001562559999999849e+02,-2.026171919999999886e+02,-2.863750000000000000e+02
-2.005664120000000139e+02,-2.026171919999999886e+02,-2.845000000000000000e+02
-2.001562559999999849e+02,-2.030273479999999893e+02,-2.845000000000000000e+02
-2.005664120000000139e+02,-2.017968799999999874e+02,-2.857500000000000000e+02
-2.001562559999999849e+02,-2.017968799999999874e+02,-2.863750000000000000e+02
-2.005664120000000139e+02,-2.009765679999999861e+02,-2.882500000000000000e+02
-2.001562559999999849e+02,-2.013867239999999867e+02,-2.882500000000000000e+02
-2.001562559999999849e+02,-2.009765679999999861e+02,-2.888750000000000000e+02
-2.001562559999999849e+02,-2.009765679999999861e+02,-2.876250000000000000e+02
-2.001562559999999849e+02,-2.009765679999999861e+02,-2.863750000000000000e+02
-2.001562559999999849e+02,-2.005664120000000139e+02,-2.895000000000000000e+02
-2.001562559999999849e+02,-2.005664120000000139e+02,-2.907500000000000000e+02
-2.001562559999999849e+02,-2.005664120000000139e+02,-2.870000000000000000e+02
-1.997461000000000126e+02,-2.075390639999999962e+02,-2.870000000000000000e+02
-1.997461000000000126e+02,-2.067187519999999950e+02,-2.895000000000000000e+02
-1.997461000000000126e+02,-2.067187519999999950e+02,-2.907500000000000000e+02
-1.997461000000000126e+02,-2.067187519999999950e+02,-2.882500000000000000e+02
-1.997461000000000126e+02,-2.067187519999999950e+02,-2.870000000000000000e+02
-1.997461000000000126e+02,-2.058984399999999937e+02,-2.895000000000000000e+02
-1.997461000000000126e+02,-2.058984399999999937e+02,-2.907500000000000000e+02
-1.997461000000000126e+02,-2.058984399999999937e+02,-2.882500000000000000e+02
-1.993359440000000120e+02,-2.058984399999999937e+02,-2.876250000000000000e+02
-1.993359440000000120e+02,-2.063085959999999943e+02,-2.870000000000000000e+02
-1.997461000000000126e+02,-2.058984399999999937e+02,-2.857500000000000000e+02
-1.993359440000000120e+02,-2.058984399999999937e+02,-2.863750000000000000e+02
-1.997461000000000126e+02,-2.050781279999999924e+02,-2.895000000000000000e+02
-1.997461000000000126e+02,-2.050781279999999924e+02,-2.907500000000000000e+02
-1.993359440000000120e+02,-2.050781279999999924e+02,-2.888750000000000000e+02
-1.993359440000000120e+02,-2.054882839999999931e+02,-2.882500000000000000e+02
-1.997461000000000126e+02,-2.050781279999999924e+02,-2.857500000000000000e+02
-1.993359440000000120e+02,-2.050781279999999924e+02,-2.863750000000000000e+02
-1.997461000000000126e+02,-2.050781279999999924e+02,-2.845000000000000000e+02
-1.993359440000000120e+02,-2.042578159999999912e+02,-2.901250000000000000e+02
-1.993359440000000120e+02,-2.046679719999999918e+02,-2.895000000000000000e+02
-1.997461000000000126e+02,-2.042578159999999912e+02,-2.907500000000000000e+02
-1.997461000000000126e+02,-2.042578159999999912e+02,-2.857500000000000000e+02
-1.993359440000000120e+02,-2.042578159999999912e+02,-2.863750000000000000e+02
-1.997461000000000126e+02,-2.042578159999999912e+02,-2.845000000000000000e+02
-1.993359440000000120e+02,-2.038476599999999905e+02,-2.907500000000000000e+02
-1.997461000000000126e+02,-2.034375039999999899e+02,-2.857500000000000000e+02
-1.993359440000000120e+02,-2.034375039999999899e+02,-2.863750000000000000e+02
-1.997461000000000126e+02,-2.034375039999999899e+02,-2.845000000000000000e+02
-1.993359440000000120e+02,-2.026171919999999886e+02,-2.863750000000000000e+02
-1.993359440000000120e+02,-2.022070359999999880e+02,-2.907500000000000000e+02
-1.997461000000000126e+02,-2.017968799999999874e+02,-2.907500000000000000e+02
-1.993359440000000120e+02,-2.017968799999999874e+02,-2.901250000000000000e+02
-1.993359440000000120e+02,-2.017968799999999874e+02,-2.863750000000000000e+02
-1.993359440000000120e+02,-2.013867239999999867e+02,-2.895000000000000000e+02
-1.997461000000000126e+02,-2.009765679999999861e+02,-2.895000000000000000e+02
-1.997461000000000126e+02,-2.009765679999999861e+02,-2.907500000000000000e+02
-1.993359440000000120e+02,-2.013867239999999867e+02,-2.882500000000000000e+02
-1.997461000000000126e+02,-2.009765679999999861e+02,-2.870000000000000000e+02
-1.993359440000000120e+02,-2.013867239999999867e+02,-2.870000000000000000e+02
-1.989257880000000114e+02,-2.058984399999999937e+02,-2.870000000000000000e+02
-1.989257880000000114e+02,-2.050781279999999924e+02,-2.882500000000000000e+02
-1.989257880000000114e+02,-2.050781279999999924e+02,-2.870000000000000000e+02
-1.989257880000000114e+02,-2.042578159999999912e+02,-2.895000000000000000e+02
-1.985156320000000107e+02,-2.042578159999999912e+02,-2.888750000000000000e+02
-1.985156320000000107e+02,-2.046679719999999918e+02,-2.882500000000000000e+02
-1.985156320000000107e+02,-2.042578159999999912e+02,-2.876250000000000000e+02
-1.989257880000000114e+02,-2.042578159999999912e+02,-2.870000000000000000e+02
-1.989257880000000114e+02,-2.034375039999999899e+02,-2.907500000000000000e+02
-1.989257880000000114e+02,-2.034375039999999899e+02,-2.895000000000000000e+02
-1.985156320000000107e+02,-2.034375039999999899e+02,-2.888750000000000000e+02
-1.989257880000000114e+02,-2.034375039999999899e+02,-2.870000000000000000e+02
-1.985156320000000107e+02,-2.034375039999999899e+02,-2.876250000000000000e+02
-1.989257880000000114e+02,-2.026171919999999886e+02,-2.895000000000000000e+02
-1.989257880000000114e+02,-2.026171919999999886e+02,-2.907500000000000000e+02
-1.985156320000000107e+02,-2.030273479999999893e+02,-2.882500000000000000e+02
-1.989257880000000114e+02,-2.026171919999999886e+02,-2.882500000000000000e+02
-1.989257880000000114e+02,-2.026171919999999886e+02,-2.870000000000000000e+02
-1.989257880000000114e+02,-2.017968799999999874e+02,-2.895000000000000000e+02
-1.989257880000000114e+02,-2.017968799999999874e+02,-2.882500000000000000e+02
-1.989257880000000114e+02,-2.017968799999999874e+02,-2.870000000000000000e+02
-1.981054760000000101e+02,-2.042578159999999912e+02,-2.882500000000000000e+02
-1.981054760000000101e+02,-2.034375039999999899e+02,-2.882500000000000000e+02
