-1.680468750000000000e+02,-1.653718719999999962e+02,-3.600000000000000000e+02
-1.680468750000000000e+02,-1.646687469999999962e+02,-3.600000000000000000e+02
-1.680468750000000000e+02,-1.639656219999999962e+02,-3.600000000000000000e+02
-1.680468750000000000e+02,-1.632624969999999962e+02,-3.600000000000000000e+02
-1.680468750000000000e+02,-1.625593719999999962e+02,-3.600000000000000000e+02
-1.680468750000000000e+02,-1.618562469999999962e+02,-3.625000000000000000e+02
-1.680468750000000000e+02,-1.622078094999999962e+02,-3.612500000000000000e+02
-1.680468750000000000e+02,-1.611531219999999962e+02,-3.625000000000000000e+02
-1.680468750000000000e+02,-1.604499969999999962e+02,-3.625000000000000000e+02
-1.680468750000000000e+02,-1.597468719999999962e+02,-3.625000000000000000e+02
-1.680468750000000000e+02,-1.593953094999999962e+02,-3.637500000000000000e+02
-1.683984375000000000e+02,-1.555281219999999962e+02,-3.437500000000000000e+02
-1.683984375000000000e+02,-1.548249969999999962e+02,-3.437500000000000000e+02
-1.680468750000000000e+02,-1.544734344999999962e+02,-3.462500000000000000e+02
-1.680468750000000000e+02,-1.541218719999999962e+02,-3.475000000000000000e+02
-1.680468750000000000e+02,-1.544734344999999962e+02,-3.437500000000000000e+02
-1.680468750000000000e+02,-1.534187469999999962e+02,-3.475000000000000000e+02
-1.680468750000000000e+02,-1.527156219999999962e+02,-3.475000000000000000e+02
-1.680468750000000000e+02,-1.523640594999999962e+02,-3.537500000000000000e+02
-1.680468750000000000e+02,-1.520124969999999962e+02,-3.550000000000000000e+02
-1.680468750000000000e+02,-1.520124969999999962e+02,-3.525000000000000000e+02
-1.683984375000000000e+02,-1.520124969999999962e+02,-3.487500000000000000e+02
-1.680468750000000000e+02,-1.523640594999999962e+02,-3.487500000000000000e+02
-1.680468750000000000e+02,-1.520124969999999962e+02,-3.500000000000000000e+02
-1.680468750000000000e+02,-1.513093719999999962e+02,-3.550000000000000000e+02
-1.680468750000000000e+02,-1.513093719999999962e+02,-3.525000000000000000e+02
-1.680468750000000000e+02,-1.513093719999999962e+02,-3.500000000000000000e+02
-1.680468750000000000e+02,-1.506062469999999962e+02,-3.550000000000000000e+02
-1.680468750000000000e+02,-1.509578094999999962e+02,-3.512500000000000000e+02
-1.680468750000000000e+02,-1.502546844999999962e+02,-3.562500000000000000e+02
-1.680468750000000000e+02,-1.499031219999999962e+02,-3.575000000000000000e+02
-1.680468750000000000e+02,-1.495515594999999962e+02,-3.612500000000000000e+02
-1.680468750000000000e+02,-1.495515594999999962e+02,-3.637500000000000000e+02
-1.680468750000000000e+02,-1.495515594999999962e+02,-3.587500000000000000e+02
-1.673437500000000000e+02,-1.709968719999999962e+02,-3.500000000000000000e+02
-1.673437500000000000e+02,-1.713484344999999962e+02,-3.487500000000000000e+02
-1.673437500000000000e+02,-1.709968719999999962e+02,-3.475000000000000000e+02
-1.673437500000000000e+02,-1.702937469999999962e+02,-3.525000000000000000e+02
-1.673437500000000000e+02,-1.706453094999999962e+02,-3.512500000000000000e+02
-1.673437500000000000e+02,-1.706453094999999962e+02,-3.462500000000000000e+02
-1.676953125000000000e+02,-1.702937469999999962e+02,-3.462500000000000000e+02
-1.673437500000000000e+02,-1.702937469999999962e+02,-3.450000000000000000e+02
-1.673437500000000000e+02,-1.695906219999999962e+02,-3.525000000000000000e+02
-1.673437500000000000e+02,-1.699421844999999962e+02,-3.437500000000000000e+02
-1.676953125000000000e+02,-1.695906219999999962e+02,-3.437500000000000000e+02
-1.676953125000000000e+02,-1.688874969999999962e+02,-3.537500000000000000e+02
-1.673437500000000000e+02,-1.688874969999999962e+02,-3.550000000000000000e+02
-1.673437500000000000e+02,-1.692390594999999962e+02,-3.537500000000000000e+02
-1.673437500000000000e+02,-1.681843719999999962e+02,-3.550000000000000000e+02
-1.673437500000000000e+02,-1.674812469999999962e+02,-3.550000000000000000e+02
-1.676953125000000000e+02,-1.667781219999999962e+02,-3.587500000000000000e+02
-1.673437500000000000e+02,-1.667781219999999962e+02,-3.600000000000000000e+02
-1.673437500000000000e+02,-1.671296844999999962e+02,-3.587500000000000000e+02
-1.673437500000000000e+02,-1.671296844999999962e+02,-3.562500000000000000e+02
-1.676953125000000000e+02,-1.667781219999999962e+02,-3.562500000000000000e+02
-1.673437500000000000e+02,-1.660749969999999962e+02,-3.600000000000000000e+02
-1.673437500000000000e+02,-1.653718719999999962e+02,-3.600000000000000000e+02
-1.673437500000000000e+02,-1.646687469999999962e+02,-3.600000000000000000e+02
-1.673437500000000000e+02,-1.639656219999999962e+02,-3.600000000000000000e+02
-1.673437500000000000e+02,-1.632624969999999962e+02,-3.600000000000000000e+02
-1.673437500000000000e+02,-1.625593719999999962e+02,-3.600000000000000000e+02
-1.676953125000000000e+02,-1.618562469999999962e+02,-3.612500000000000000e+02
-1.673437500000000000e+02,-1.618562469999999962e+02,-3.600000000000000000e+02
-1.673437500000000000e+02,-1.611531219999999962e+02,-3.625000000000000000e+02
-1.673437500000000000e+02,-1.615046844999999962e+02,-3.612500000000000000e+02
-1.673437500000000000e+02,-1.604499969999999962e+02,-3.625000000000000000e+02
-1.673437500000000000e+02,-1.597468719999999962e+02,-3.625000000000000000e+02
-1.676953125000000000e+02,-1.590437469999999962e+02,-3.637500000000000000e+02
-1.673437500000000000e+02,-1.590437469999999962e+02,-3.625000000000000000e+02
-1.673437500000000000e+02,-1.583406219999999962e+02,-3.625000000000000000e+02
-1.676953125000000000e+02,-1.583406219999999962e+02,-3.637500000000000000e+02
-1.673437500000000000e+02,-1.576374969999999962e+02,-3.625000000000000000e+02
-1.676953125000000000e+02,-1.576374969999999962e+02,-3.637500000000000000e+02
-1.673437500000000000e+02,-1.569343719999999962e+02,-3.625000000000000000e+02
-1.676953125000000000e+02,-1.569343719999999962e+02,-3.637500000000000000e+02
-1.673437500000000000e+02,-1.562312469999999962e+02,-3.625000000000000000e+02
-1.676953125000000000e+02,-1.562312469999999962e+02,-3.637500000000000000e+02
-1.673437500000000000e+02,-1.555281219999999962e+02,-3.625000000000000000e+02
-1.676953125000000000e+02,-1.555281219999999962e+02,-3.637500000000000000e+02
-1.673437500000000000e+02,-1.551765594999999962e+02,-3.637500000000000000e+02
-1.676953125000000000e+02,-1.541218719999999962e+02,-3.462500000000000000e+02
-1.676953125000000000e+02,-1.541218719999999962e+02,-3.437500000000000000e+02
-1.673437500000000000e+02,-1.537703094999999962e+02,-3.462500000000000000e+02
-1.673437500000000000e+02,-1.534187469999999962e+02,-3.475000000000000000e+02
-1.673437500000000000e+02,-1.537703094999999962e+02,-3.437500000000000000e+02
-1.673437500000000000e+02,-1.527156219999999962e+02,-3.475000000000000000e+02
-1.673437500000000000e+02,-1.523640594999999962e+02,-3.537500000000000000e+02
-1.673437500000000000e+02,-1.520124969999999962e+02,-3.550000000000000000e+02
-1.673437500000000000e+02,-1.520124969999999962e+02,-3.525000000000000000e+02
-1.676953125000000000e+02,-1.520124969999999962e+02,-3.487500000000000000e+02
-1.673437500000000000e+02,-1.520124969999999962e+02,-3.475000000000000000e+02
-1.673437500000000000e+02,-1.513093719999999962e+02,-3.550000000000000000e+02
-1.673437500000000000e+02,-1.516609344999999962e+02,-3.512500000000000000e+02
-1.676953125000000000e+02,-1.513093719999999962e+02,-3.512500000000000000e+02
-1.673437500000000000e+02,-1.516609344999999962e+02,-3.487500000000000000e+02
-1.673437500000000000e+02,-1.506062469999999962e+02,-3.550000000000000000e+02
-1.673437500000000000e+02,-1.502546844999999962e+02,-3.562500000000000000e+02
-1.673437500000000000e+02,-1.499031219999999962e+02,-3.575000000000000000e+02
-1.673437500000000000e+02,-1.495515594999999962e+02,-3.612500000000000000e+02
-1.673437500000000000e+02,-1.495515594999999962e+02,-3.637500000000000000e+02
-1.673437500000000000e+02,-1.495515594999999962e+02,-3.587500000000000000e+02
-1.669921875000000000e+02,-1.709968719999999962e+02,-3.487500000000000000e+02
-1.666406250000000000e+02,-1.702937469999999962e+02,-3.525000000000000000e+02
-1.666406250000000000e+02,-1.706453094999999962e+02,-3.512500000000000000e+02
-1.666406250000000000e+02,-1.706453094999999962e+02,-3.487500000000000000e+02
-1.666406250000000000e+02,-1.706453094999999962e+02,-3.462500000000000000e+02
-1.666406250000000000e+02,-1.702937469999999962e+02,-3.450000000000000000e+02
-1.666406250000000000e+02,-1.695906219999999962e+02,-3.525000000000000000e+02
-1.666406250000000000e+02,-1.699421844999999962e+02,-3.437500000000000000e+02
-1.666406250000000000e+02,-1.688874969999999962e+02,-3.550000000000000000e+02
-1.666406250000000000e+02,-1.692390594999999962e+02,-3.537500000000000000e+02
-1.666406250000000000e+02,-1.681843719999999962e+02,-3.550000000000000000e+02
-1.666406250000000000e+02,-1.674812469999999962e+02,-3.550000000000000000e+02
-1.666406250000000000e+02,-1.667781219999999962e+02,-3.600000000000000000e+02
-1.666406250000000000e+02,-1.671296844999999962e+02,-3.587500000000000000e+02
-1.666406250000000000e+02,-1.671296844999999962e+02,-3.562500000000000000e+02
-1.666406250000000000e+02,-1.660749969999999962e+02,-3.600000000000000000e+02
-1.666406250000000000e+02,-1.653718719999999962e+02,-3.600000000000000000e+02
-1.666406250000000000e+02,-1.646687469999999962e+02,-3.600000000000000000e+02
-1.666406250000000000e+02,-1.639656219999999962e+02,-3.600000000000000000e+02
-1.666406250000000000e+02,-1.632624969999999962e+02,-3.600000000000000000e+02
-1.666406250000000000e+02,-1.625593719999999962e+02,-3.600000000000000000e+02
-1.666406250000000000e+02,-1.618562469999999962e+02,-3.600000000000000000e+02
-1.669921875000000000e+02,-1.611531219999999962e+02,-3.612500000000000000e+02
-1.666406250000000000e+02,-1.611531219999999962e+02,-3.600000000000000000e+02
-1.669921875000000000e+02,-1.604499969999999962e+02,-3.612500000000000000e+02
-1.666406250000000000e+02,-1.604499969999999962e+02,-3.600000000000000000e+02
-1.669921875000000000e+02,-1.597468719999999962e+02,-3.612500000000000000e+02
-1.666406250000000000e+02,-1.597468719999999962e+02,-3.600000000000000000e+02
-1.669921875000000000e+02,-1.590437469999999962e+02,-3.612500000000000000e+02
-1.666406250000000000e+02,-1.590437469999999962e+02,-3.600000000000000000e+02
-1.669921875000000000e+02,-1.583406219999999962e+02,-3.612500000000000000e+02
-1.666406250000000000e+02,-1.583406219999999962e+02,-3.600000000000000000e+02
-1.669921875000000000e+02,-1.576374969999999962e+02,-3.612500000000000000e+02
-1.666406250000000000e+02,-1.576374969999999962e+02,-3.600000000000000000e+02
-1.669921875000000000e+02,-1.569343719999999962e+02,-3.612500000000000000e+02
-1.666406250000000000e+02,-1.569343719999999962e+02,-3.600000000000000000e+02
-1.666406250000000000e+02,-1.562312469999999962e+02,-3.625000000000000000e+02
-1.666406250000000000e+02,-1.565828094999999962e+02,-3.612500000000000000e+02
-1.666406250000000000e+02,-1.555281219999999962e+02,-3.625000000000000000e+02
-1.669921875000000000e+02,-1.548249969999999962e+02,-3.637500000000000000e+02
-1.666406250000000000e+02,-1.548249969999999962e+02,-3.625000000000000000e+02
-1.666406250000000000e+02,-1.541218719999999962e+02,-3.625000000000000000e+02
-1.669921875000000000e+02,-1.541218719999999962e+02,-3.637500000000000000e+02
-1.666406250000000000e+02,-1.537703094999999962e+02,-3.637500000000000000e+02
-1.669921875000000000e+02,-1.534187469999999962e+02,-3.462500000000000000e+02
-1.666406250000000000e+02,-1.534187469999999962e+02,-3.450000000000000000e+02
-1.666406250000000000e+02,-1.537703094999999962e+02,-3.437500000000000000e+02
-1.666406250000000000e+02,-1.530671844999999962e+02,-3.462500000000000000e+02
-1.666406250000000000e+02,-1.527156219999999962e+02,-3.475000000000000000e+02
-1.666406250000000000e+02,-1.523640594999999962e+02,-3.537500000000000000e+02
-1.666406250000000000e+02,-1.520124969999999962e+02,-3.550000000000000000e+02
-1.666406250000000000e+02,-1.520124969999999962e+02,-3.525000000000000000e+02
-1.666406250000000000e+02,-1.520124969999999962e+02,-3.475000000000000000e+02
-1.666406250000000000e+02,-1.513093719999999962e+02,-3.550000000000000000e+02
-1.666406250000000000e+02,-1.516609344999999962e+02,-3.512500000000000000e+02
-1.666406250000000000e+02,-1.516609344999999962e+02,-3.487500000000000000e+02
-1.666406250000000000e+02,-1.506062469999999962e+02,-3.550000000000000000e+02
-1.666406250000000000e+02,-1.502546844999999962e+02,-3.562500000000000000e+02
-1.666406250000000000e+02,-1.499031219999999962e+02,-3.575000000000000000e+02
-1.666406250000000000e+02,-1.495515594999999962e+02,-3.612500000000000000e+02
-1.666406250000000000e+02,-1.495515594999999962e+02,-3.637500000000000000e+02
-1.666406250000000000e+02,-1.495515594999999962e+02,-3.587500000000000000e+02
-1.662890625000000000e+02,-1.702937469999999962e+02,-3.512500000000000000e+02
-1.662890625000000000e+02,-1.702937469999999962e+02,-3.487500000000000000e+02
-1.662890625000000000e+02,-1.702937469999999962e+02,-3.462500000000000000e+02
-1.662890625000000000e+02,-1.695906219999999962e+02,-3.537500000000000000e+02
-1.659375000000000000e+02,-1.695906219999999962e+02,-3.550000000000000000e+02
-1.659375000000000000e+02,-1.699421844999999962e+02,-3.537500000000000000e+02
-1.659375000000000000e+02,-1.699421844999999962e+02,-3.512500000000000000e+02
-1.659375000000000000e+02,-1.699421844999999962e+02,-3.487500000000000000e+02
-1.659375000000000000e+02,-1.699421844999999962e+02,-3.462500000000000000e+02
-1.659375000000000000e+02,-1.699421844999999962e+02,-3.437500000000000000e+02
-1.659375000000000000e+02,-1.688874969999999962e+02,-3.550000000000000000e+02
-1.659375000000000000e+02,-1.681843719999999962e+02,-3.550000000000000000e+02
-1.662890625000000000e+02,-1.674812469999999962e+02,-3.562500000000000000e+02
-1.659375000000000000e+02,-1.674812469999999962e+02,-3.575000000000000000e+02
-1.659375000000000000e+02,-1.678328094999999962e+02,-3.562500000000000000e+02
-1.659375000000000000e+02,-1.667781219999999962e+02,-3.600000000000000000e+02
-1.659375000000000000e+02,-1.671296844999999962e+02,-3.587500000000000000e+02
-1.659375000000000000e+02,-1.660749969999999962e+02,-3.600000000000000000e+02
-1.659375000000000000e+02,-1.653718719999999962e+02,-3.600000000000000000e+02
-1.659375000000000000e+02,-1.646687469999999962e+02,-3.600000000000000000e+02
-1.659375000000000000e+02,-1.639656219999999962e+02,-3.600000000000000000e+02
-1.659375000000000000e+02,-1.632624969999999962e+02,-3.600000000000000000e+02
-1.659375000000000000e+02,-1.625593719999999962e+02,-3.600000000000000000e+02
-1.659375000000000000e+02,-1.618562469999999962e+02,-3.600000000000000000e+02
-1.659375000000000000e+02,-1.611531219999999962e+02,-3.600000000000000000e+02
-1.659375000000000000e+02,-1.608015594999999962e+02,-3.587500000000000000e+02
-1.662890625000000000e+02,-1.604499969999999962e+02,-3.587500000000000000e+02
-1.659375000000000000e+02,-1.604499969999999962e+02,-3.575000000000000000e+02
-1.662890625000000000e+02,-1.597468719999999962e+02,-3.587500000000000000e+02
-1.659375000000000000e+02,-1.597468719999999962e+02,-3.575000000000000000e+02
-1.662890625000000000e+02,-1.590437469999999962e+02,-3.587500000000000000e+02
-1.659375000000000000e+02,-1.590437469999999962e+02,-3.575000000000000000e+02
-1.662890625000000000e+02,-1.583406219999999962e+02,-3.587500000000000000e+02
-1.659375000000000000e+02,-1.583406219999999962e+02,-3.575000000000000000e+02
-1.662890625000000000e+02,-1.576374969999999962e+02,-3.587500000000000000e+02
-1.659375000000000000e+02,-1.576374969999999962e+02,-3.575000000000000000e+02
-1.662890625000000000e+02,-1.569343719999999962e+02,-3.587500000000000000e+02
-1.659375000000000000e+02,-1.569343719999999962e+02,-3.575000000000000000e+02
-1.662890625000000000e+02,-1.562312469999999962e+02,-3.612500000000000000e+02
-1.659375000000000000e+02,-1.562312469999999962e+02,-3.600000000000000000e+02
-1.659375000000000000e+02,-1.565828094999999962e+02,-3.587500000000000000e+02
-1.662890625000000000e+02,-1.555281219999999962e+02,-3.612500000000000000e+02
-1.659375000000000000e+02,-1.555281219999999962e+02,-3.600000000000000000e+02
-1.659375000000000000e+02,-1.548249969999999962e+02,-3.625000000000000000e+02
-1.659375000000000000e+02,-1.551765594999999962e+02,-3.612500000000000000e+02
-1.659375000000000000e+02,-1.541218719999999962e+02,-3.625000000000000000e+02
-1.662890625000000000e+02,-1.534187469999999962e+02,-3.637500000000000000e+02
-1.659375000000000000e+02,-1.534187469999999962e+02,-3.625000000000000000e+02
-1.659375000000000000e+02,-1.537703094999999962e+02,-3.437500000000000000e+02
-1.659375000000000000e+02,-1.534187469999999962e+02,-3.450000000000000000e+02
-1.659375000000000000e+02,-1.527156219999999962e+02,-3.625000000000000000e+02
-1.662890625000000000e+02,-1.527156219999999962e+02,-3.637500000000000000e+02
-1.659375000000000000e+02,-1.530671844999999962e+02,-3.462500000000000000e+02
-1.659375000000000000e+02,-1.527156219999999962e+02,-3.475000000000000000e+02
-1.659375000000000000e+02,-1.520124969999999962e+02,-3.625000000000000000e+02
-1.662890625000000000e+02,-1.520124969999999962e+02,-3.637500000000000000e+02
-1.659375000000000000e+02,-1.523640594999999962e+02,-3.537500000000000000e+02
-1.659375000000000000e+02,-1.520124969999999962e+02,-3.550000000000000000e+02
-1.659375000000000000e+02,-1.520124969999999962e+02,-3.525000000000000000e+02
-1.659375000000000000e+02,-1.520124969999999962e+02,-3.475000000000000000e+02
-1.659375000000000000e+02,-1.513093719999999962e+02,-3.625000000000000000e+02
-1.662890625000000000e+02,-1.513093719999999962e+02,-3.637500000000000000e+02
-1.659375000000000000e+02,-1.513093719999999962e+02,-3.550000000000000000e+02
-1.659375000000000000e+02,-1.516609344999999962e+02,-3.512500000000000000e+02
-1.659375000000000000e+02,-1.516609344999999962e+02,-3.487500000000000000e+02
-1.659375000000000000e+02,-1.506062469999999962e+02,-3.625000000000000000e+02
-1.662890625000000000e+02,-1.506062469999999962e+02,-3.637500000000000000e+02
-1.659375000000000000e+02,-1.506062469999999962e+02,-3.550000000000000000e+02
-1.659375000000000000e+02,-1.499031219999999962e+02,-3.625000000000000000e+02
-1.662890625000000000e+02,-1.499031219999999962e+02,-3.637500000000000000e+02
-1.659375000000000000e+02,-1.502546844999999962e+02,-3.562500000000000000e+02
-1.659375000000000000e+02,-1.499031219999999962e+02,-3.575000000000000000e+02
-1.659375000000000000e+02,-1.495515594999999962e+02,-3.612500000000000000e+02
-1.659375000000000000e+02,-1.495515594999999962e+02,-3.587500000000000000e+02
-1.652343750000000000e+02,-1.695906219999999962e+02,-3.550000000000000000e+02
-1.652343750000000000e+02,-1.699421844999999962e+02,-3.537500000000000000e+02
-1.652343750000000000e+02,-1.699421844999999962e+02,-3.512500000000000000e+02
-1.655859375000000000e+02,-1.695906219999999962e+02,-3.487500000000000000e+02
-1.652343750000000000e+02,-1.695906219999999962e+02,-3.500000000000000000e+02
-1.655859375000000000e+02,-1.695906219999999962e+02,-3.462500000000000000e+02
-1.655859375000000000e+02,-1.695906219999999962e+02,-3.437500000000000000e+02
-1.652343750000000000e+02,-1.688874969999999962e+02,-3.550000000000000000e+02
-1.652343750000000000e+02,-1.692390594999999962e+02,-3.487500000000000000e+02
-1.652343750000000000e+02,-1.692390594999999962e+02,-3.462500000000000000e+02
-1.652343750000000000e+02,-1.692390594999999962e+02,-3.437500000000000000e+02
-1.652343750000000000e+02,-1.681843719999999962e+02,-3.550000000000000000e+02
-1.652343750000000000e+02,-1.674812469999999962e+02,-3.575000000000000000e+02
-1.652343750000000000e+02,-1.678328094999999962e+02,-3.562500000000000000e+02
-1.655859375000000000e+02,-1.667781219999999962e+02,-3.587500000000000000e+02
-1.652343750000000000e+02,-1.667781219999999962e+02,-3.575000000000000000e+02
-1.655859375000000000e+02,-1.660749969999999962e+02,-3.587500000000000000e+02
-1.652343750000000000e+02,-1.660749969999999962e+02,-3.575000000000000000e+02
-1.655859375000000000e+02,-1.653718719999999962e+02,-3.587500000000000000e+02
-1.652343750000000000e+02,-1.653718719999999962e+02,-3.575000000000000000e+02
-1.655859375000000000e+02,-1.646687469999999962e+02,-3.587500000000000000e+02
-1.652343750000000000e+02,-1.646687469999999962e+02,-3.575000000000000000e+02
-1.655859375000000000e+02,-1.639656219999999962e+02,-3.587500000000000000e+02
-1.652343750000000000e+02,-1.639656219999999962e+02,-3.575000000000000000e+02
-1.655859375000000000e+02,-1.632624969999999962e+02,-3.587500000000000000e+02
-1.652343750000000000e+02,-1.632624969999999962e+02,-3.575000000000000000e+02
-1.655859375000000000e+02,-1.625593719999999962e+02,-3.587500000000000000e+02
-1.652343750000000000e+02,-1.625593719999999962e+02,-3.575000000000000000e+02
-1.655859375000000000e+02,-1.618562469999999962e+02,-3.587500000000000000e+02
-1.652343750000000000e+02,-1.618562469999999962e+02,-3.575000000000000000e+02
-1.655859375000000000e+02,-1.611531219999999962e+02,-3.587500000000000000e+02
-1.652343750000000000e+02,-1.611531219999999962e+02,-3.575000000000000000e+02
-1.652343750000000000e+02,-1.604499969999999962e+02,-3.575000000000000000e+02
-1.652343750000000000e+02,-1.597468719999999962e+02,-3.575000000000000000e+02
-1.652343750000000000e+02,-1.590437469999999962e+02,-3.575000000000000000e+02
-1.652343750000000000e+02,-1.583406219999999962e+02,-3.575000000000000000e+02
-1.652343750000000000e+02,-1.576374969999999962e+02,-3.575000000000000000e+02
-1.652343750000000000e+02,-1.569343719999999962e+02,-3.575000000000000000e+02
-1.655859375000000000e+02,-1.562312469999999962e+02,-3.587500000000000000e+02
-1.652343750000000000e+02,-1.562312469999999962e+02,-3.575000000000000000e+02
-1.652343750000000000e+02,-1.555281219999999962e+02,-3.600000000000000000e+02
-1.652343750000000000e+02,-1.558796844999999962e+02,-3.587500000000000000e+02
-1.655859375000000000e+02,-1.548249969999999962e+02,-3.612500000000000000e+02
-1.652343750000000000e+02,-1.548249969999999962e+02,-3.600000000000000000e+02
-1.655859375000000000e+02,-1.541218719999999962e+02,-3.612500000000000000e+02
-1.652343750000000000e+02,-1.541218719999999962e+02,-3.600000000000000000e+02
-1.655859375000000000e+02,-1.534187469999999962e+02,-3.612500000000000000e+02
-1.652343750000000000e+02,-1.534187469999999962e+02,-3.600000000000000000e+02
-1.652343750000000000e+02,-1.537703094999999962e+02,-3.437500000000000000e+02
-1.652343750000000000e+02,-1.534187469999999962e+02,-3.450000000000000000e+02
-1.655859375000000000e+02,-1.527156219999999962e+02,-3.612500000000000000e+02
-1.652343750000000000e+02,-1.530671844999999962e+02,-3.587500000000000000e+02
-1.655859375000000000e+02,-1.527156219999999962e+02,-3.587500000000000000e+02
-1.652343750000000000e+02,-1.527156219999999962e+02,-3.575000000000000000e+02
-1.652343750000000000e+02,-1.530671844999999962e+02,-3.462500000000000000e+02
-1.652343750000000000e+02,-1.527156219999999962e+02,-3.475000000000000000e+02
-1.655859375000000000e+02,-1.520124969999999962e+02,-3.612500000000000000e+02
-1.655859375000000000e+02,-1.520124969999999962e+02,-3.587500000000000000e+02
-1.652343750000000000e+02,-1.520124969999999962e+02,-3.575000000000000000e+02
-1.652343750000000000e+02,-1.523640594999999962e+02,-3.537500000000000000e+02
-1.652343750000000000e+02,-1.520124969999999962e+02,-3.550000000000000000e+02
-1.652343750000000000e+02,-1.520124969999999962e+02,-3.525000000000000000e+02
-1.652343750000000000e+02,-1.520124969999999962e+02,-3.475000000000000000e+02
-1.652343750000000000e+02,-1.513093719999999962e+02,-3.625000000000000000e+02
-1.652343750000000000e+02,-1.516609344999999962e+02,-3.612500000000000000e+02
-1.652343750000000000e+02,-1.513093719999999962e+02,-3.600000000000000000e+02
-1.655859375000000000e+02,-1.513093719999999962e+02,-3.587500000000000000e+02
-1.652343750000000000e+02,-1.513093719999999962e+02,-3.575000000000000000e+02
-1.652343750000000000e+02,-1.513093719999999962e+02,-3.550000000000000000e+02
-1.652343750000000000e+02,-1.516609344999999962e+02,-3.512500000000000000e+02
-1.652343750000000000e+02,-1.516609344999999962e+02,-3.487500000000000000e+02
-1.652343750000000000e+02,-1.506062469999999962e+02,-3.625000000000000000e+02
-1.652343750000000000e+02,-1.509578094999999962e+02,-3.587500000000000000e+02
-1.652343750000000000e+02,-1.506062469999999962e+02,-3.550000000000000000e+02
-1.652343750000000000e+02,-1.499031219999999962e+02,-3.625000000000000000e+02
-1.652343750000000000e+02,-1.502546844999999962e+02,-3.562500000000000000e+02
-1.652343750000000000e+02,-1.499031219999999962e+02,-3.575000000000000000e+02
-1.652343750000000000e+02,-1.495515594999999962e+02,-3.612500000000000000e+02
-1.652343750000000000e+02,-1.495515594999999962e+02,-3.587500000000000000e+02
-1.648828125000000000e+02,-1.695906219999999962e+02,-3.537500000000000000e+02
-1.648828125000000000e+02,-1.695906219999999962e+02,-3.512500000000000000e+02
-1.648828125000000000e+02,-1.695906219999999962e+02,-3.462500000000000000e+02
-1.645312500000000000e+02,-1.695906219999999962e+02,-3.475000000000000000e+02
-1.645312500000000000e+02,-1.699421844999999962e+02,-3.462500000000000000e+02
-1.645312500000000000e+02,-1.695906219999999962e+02,-3.450000000000000000e+02
-1.645312500000000000e+02,-1.688874969999999962e+02,-3.550000000000000000e+02
-1.645312500000000000e+02,-1.692390594999999962e+02,-3.537500000000000000e+02
-1.645312500000000000e+02,-1.692390594999999962e+02,-3.512500000000000000e+02
-1.645312500000000000e+02,-1.692390594999999962e+02,-3.487500000000000000e+02
-1.645312500000000000e+02,-1.692390594999999962e+02,-3.437500000000000000e+02
-1.645312500000000000e+02,-1.681843719999999962e+02,-3.550000000000000000e+02
-1.648828125000000000e+02,-1.674812469999999962e+02,-3.562500000000000000e+02
-1.645312500000000000e+02,-1.674812469999999962e+02,-3.550000000000000000e+02
-1.645312500000000000e+02,-1.667781219999999962e+02,-3.575000000000000000e+02
-1.645312500000000000e+02,-1.671296844999999962e+02,-3.562500000000000000e+02
-1.645312500000000000e+02,-1.660749969999999962e+02,-3.575000000000000000e+02
-1.645312500000000000e+02,-1.653718719999999962e+02,-3.575000000000000000e+02
-1.645312500000000000e+02,-1.646687469999999962e+02,-3.575000000000000000e+02
-1.645312500000000000e+02,-1.639656219999999962e+02,-3.575000000000000000e+02
-1.645312500000000000e+02,-1.632624969999999962e+02,-3.575000000000000000e+02
-1.645312500000000000e+02,-1.625593719999999962e+02,-3.575000000000000000e+02
-1.645312500000000000e+02,-1.618562469999999962e+02,-3.575000000000000000e+02
-1.645312500000000000e+02,-1.611531219999999962e+02,-3.575000000000000000e+02
-1.645312500000000000e+02,-1.604499969999999962e+02,-3.575000000000000000e+02
-1.645312500000000000e+02,-1.597468719999999962e+02,-3.575000000000000000e+02
-1.645312500000000000e+02,-1.590437469999999962e+02,-3.575000000000000000e+02
-1.645312500000000000e+02,-1.583406219999999962e+02,-3.575000000000000000e+02
-1.645312500000000000e+02,-1.576374969999999962e+02,-3.575000000000000000e+02
-1.645312500000000000e+02,-1.569343719999999962e+02,-3.575000000000000000e+02
-1.645312500000000000e+02,-1.562312469999999962e+02,-3.575000000000000000e+02
-1.645312500000000000e+02,-1.555281219999999962e+02,-3.600000000000000000e+02
-1.645312500000000000e+02,-1.558796844999999962e+02,-3.587500000000000000e+02
-1.645312500000000000e+02,-1.548249969999999962e+02,-3.600000000000000000e+02
-1.645312500000000000e+02,-1.544734344999999962e+02,-3.587500000000000000e+02
-1.648828125000000000e+02,-1.541218719999999962e+02,-3.587500000000000000e+02
-1.645312500000000000e+02,-1.541218719999999962e+02,-3.575000000000000000e+02
-1.648828125000000000e+02,-1.534187469999999962e+02,-3.587500000000000000e+02
-1.645312500000000000e+02,-1.534187469999999962e+02,-3.575000000000000000e+02
-1.645312500000000000e+02,-1.537703094999999962e+02,-3.437500000000000000e+02
-1.645312500000000000e+02,-1.534187469999999962e+02,-3.450000000000000000e+02
-1.645312500000000000e+02,-1.527156219999999962e+02,-3.575000000000000000e+02
-1.645312500000000000e+02,-1.530671844999999962e+02,-3.462500000000000000e+02
-1.645312500000000000e+02,-1.527156219999999962e+02,-3.475000000000000000e+02
-1.645312500000000000e+02,-1.520124969999999962e+02,-3.575000000000000000e+02
-1.645312500000000000e+02,-1.523640594999999962e+02,-3.537500000000000000e+02
-1.645312500000000000e+02,-1.520124969999999962e+02,-3.550000000000000000e+02
-1.648828125000000000e+02,-1.520124969999999962e+02,-3.512500000000000000e+02
-1.645312500000000000e+02,-1.523640594999999962e+02,-3.512500000000000000e+02
-1.645312500000000000e+02,-1.520124969999999962e+02,-3.500000000000000000e+02
-1.645312500000000000e+02,-1.520124969999999962e+02,-3.475000000000000000e+02
-1.648828125000000000e+02,-1.513093719999999962e+02,-3.612500000000000000e+02
-1.645312500000000000e+02,-1.513093719999999962e+02,-3.575000000000000000e+02
-1.645312500000000000e+02,-1.513093719999999962e+02,-3.550000000000000000e+02
-1.645312500000000000e+02,-1.516609344999999962e+02,-3.487500000000000000e+02
-1.648828125000000000e+02,-1.506062469999999962e+02,-3.612500000000000000e+02
-1.648828125000000000e+02,-1.506062469999999962e+02,-3.587500000000000000e+02
-1.645312500000000000e+02,-1.506062469999999962e+02,-3.575000000000000000e+02
-1.645312500000000000e+02,-1.506062469999999962e+02,-3.550000000000000000e+02
-1.648828125000000000e+02,-1.499031219999999962e+02,-3.612500000000000000e+02
-1.648828125000000000e+02,-1.499031219999999962e+02,-3.587500000000000000e+02
-1.645312500000000000e+02,-1.502546844999999962e+02,-3.562500000000000000e+02
-1.641796875000000000e+02,-1.702937469999999962e+02,-3.462500000000000000e+02
-1.638281250000000000e+02,-1.702937469999999962e+02,-3.475000000000000000e+02
-1.638281250000000000e+02,-1.706453094999999962e+02,-3.462500000000000000e+02
-1.638281250000000000e+02,-1.702937469999999962e+02,-3.450000000000000000e+02
-1.638281250000000000e+02,-1.695906219999999962e+02,-3.475000000000000000e+02
-1.638281250000000000e+02,-1.699421844999999962e+02,-3.437500000000000000e+02
-1.641796875000000000e+02,-1.695906219999999962e+02,-3.437500000000000000e+02
-1.641796875000000000e+02,-1.688874969999999962e+02,-3.537500000000000000e+02
-1.638281250000000000e+02,-1.688874969999999962e+02,-3.525000000000000000e+02
-1.638281250000000000e+02,-1.692390594999999962e+02,-3.512500000000000000e+02
-1.638281250000000000e+02,-1.692390594999999962e+02,-3.487500000000000000e+02
-1.638281250000000000e+02,-1.681843719999999962e+02,-3.550000000000000000e+02
-1.638281250000000000e+02,-1.685359344999999962e+02,-3.537500000000000000e+02
-1.638281250000000000e+02,-1.674812469999999962e+02,-3.550000000000000000e+02
-1.641796875000000000e+02,-1.667781219999999962e+02,-3.562500000000000000e+02
-1.638281250000000000e+02,-1.667781219999999962e+02,-3.550000000000000000e+02
-1.641796875000000000e+02,-1.660749969999999962e+02,-3.562500000000000000e+02
-1.638281250000000000e+02,-1.660749969999999962e+02,-3.550000000000000000e+02
-1.638281250000000000e+02,-1.653718719999999962e+02,-3.575000000000000000e+02
-1.638281250000000000e+02,-1.657234344999999962e+02,-3.562500000000000000e+02
-1.638281250000000000e+02,-1.646687469999999962e+02,-3.575000000000000000e+02
-1.638281250000000000e+02,-1.639656219999999962e+02,-3.575000000000000000e+02
-1.638281250000000000e+02,-1.632624969999999962e+02,-3.575000000000000000e+02
-1.638281250000000000e+02,-1.625593719999999962e+02,-3.575000000000000000e+02
-1.638281250000000000e+02,-1.618562469999999962e+02,-3.575000000000000000e+02
-1.638281250000000000e+02,-1.611531219999999962e+02,-3.575000000000000000e+02
-1.638281250000000000e+02,-1.604499969999999962e+02,-3.575000000000000000e+02
-1.638281250000000000e+02,-1.597468719999999962e+02,-3.575000000000000000e+02
-1.638281250000000000e+02,-1.590437469999999962e+02,-3.575000000000000000e+02
-1.638281250000000000e+02,-1.583406219999999962e+02,-3.575000000000000000e+02
-1.638281250000000000e+02,-1.576374969999999962e+02,-3.575000000000000000e+02
-1.638281250000000000e+02,-1.569343719999999962e+02,-3.575000000000000000e+02
-1.638281250000000000e+02,-1.562312469999999962e+02,-3.575000000000000000e+02
-1.641796875000000000e+02,-1.555281219999999962e+02,-3.587500000000000000e+02
-1.638281250000000000e+02,-1.555281219999999962e+02,-3.575000000000000000e+02
-1.641796875000000000e+02,-1.548249969999999962e+02,-3.587500000000000000e+02
-1.638281250000000000e+02,-1.548249969999999962e+02,-3.575000000000000000e+02
-1.638281250000000000e+02,-1.541218719999999962e+02,-3.575000000000000000e+02
-1.641796875000000000e+02,-1.541218719999999962e+02,-3.437500000000000000e+02
-1.638281250000000000e+02,-1.544734344999999962e+02,-3.437500000000000000e+02
-1.638281250000000000e+02,-1.541218719999999962e+02,-3.450000000000000000e+02
-1.638281250000000000e+02,-1.534187469999999962e+02,-3.575000000000000000e+02
-1.641796875000000000e+02,-1.534187469999999962e+02,-3.462500000000000000e+02
-1.638281250000000000e+02,-1.537703094999999962e+02,-3.462500000000000000e+02
-1.638281250000000000e+02,-1.534187469999999962e+02,-3.475000000000000000e+02
-1.638281250000000000e+02,-1.527156219999999962e+02,-3.575000000000000000e+02
-1.641796875000000000e+02,-1.527156219999999962e+02,-3.512500000000000000e+02
-1.638281250000000000e+02,-1.530671844999999962e+02,-3.512500000000000000e+02
-1.638281250000000000e+02,-1.527156219999999962e+02,-3.525000000000000000e+02
-1.638281250000000000e+02,-1.527156219999999962e+02,-3.500000000000000000e+02
-1.638281250000000000e+02,-1.527156219999999962e+02,-3.475000000000000000e+02
-1.638281250000000000e+02,-1.520124969999999962e+02,-3.575000000000000000e+02
-1.638281250000000000e+02,-1.523640594999999962e+02,-3.537500000000000000e+02
-1.638281250000000000e+02,-1.520124969999999962e+02,-3.550000000000000000e+02
-1.641796875000000000e+02,-1.520124969999999962e+02,-3.487500000000000000e+02
-1.638281250000000000e+02,-1.523640594999999962e+02,-3.487500000000000000e+02
-1.638281250000000000e+02,-1.513093719999999962e+02,-3.575000000000000000e+02
-1.638281250000000000e+02,-1.513093719999999962e+02,-3.550000000000000000e+02
-1.638281250000000000e+02,-1.506062469999999962e+02,-3.575000000000000000e+02
-1.638281250000000000e+02,-1.506062469999999962e+02,-3.550000000000000000e+02
-1.638281250000000000e+02,-1.502546844999999962e+02,-3.562500000000000000e+02
-1.634765625000000000e+02,-1.709968719999999962e+02,-3.462500000000000000e+02
-1.631250000000000000e+02,-1.709968719999999962e+02,-3.475000000000000000e+02
-1.631250000000000000e+02,-1.713484344999999962e+02,-3.462500000000000000e+02
-1.631250000000000000e+02,-1.709968719999999962e+02,-3.450000000000000000e+02
-1.631250000000000000e+02,-1.702937469999999962e+02,-3.475000000000000000e+02
-1.631250000000000000e+02,-1.702937469999999962e+02,-3.450000000000000000e+02
-1.631250000000000000e+02,-1.695906219999999962e+02,-3.475000000000000000e+02
-1.631250000000000000e+02,-1.699421844999999962e+02,-3.437500000000000000e+02
-1.634765625000000000e+02,-1.688874969999999962e+02,-3.512500000000000000e+02
-1.631250000000000000e+02,-1.688874969999999962e+02,-3.500000000000000000e+02
-1.631250000000000000e+02,-1.692390594999999962e+02,-3.487500000000000000e+02
-1.634765625000000000e+02,-1.681843719999999962e+02,-3.537500000000000000e+02
-1.631250000000000000e+02,-1.681843719999999962e+02,-3.525000000000000000e+02
-1.631250000000000000e+02,-1.685359344999999962e+02,-3.512500000000000000e+02
-1.631250000000000000e+02,-1.674812469999999962e+02,-3.550000000000000000e+02
-1.631250000000000000e+02,-1.678328094999999962e+02,-3.537500000000000000e+02
-1.631250000000000000e+02,-1.667781219999999962e+02,-3.550000000000000000e+02
-1.631250000000000000e+02,-1.660749969999999962e+02,-3.550000000000000000e+02
-1.634765625000000000e+02,-1.653718719999999962e+02,-3.562500000000000000e+02
-1.631250000000000000e+02,-1.653718719999999962e+02,-3.550000000000000000e+02
-1.634765625000000000e+02,-1.646687469999999962e+02,-3.562500000000000000e+02
-1.631250000000000000e+02,-1.646687469999999962e+02,-3.550000000000000000e+02
-1.631250000000000000e+02,-1.639656219999999962e+02,-3.575000000000000000e+02
-1.631250000000000000e+02,-1.643171844999999962e+02,-3.562500000000000000e+02
-1.631250000000000000e+02,-1.632624969999999962e+02,-3.575000000000000000e+02
-1.631250000000000000e+02,-1.625593719999999962e+02,-3.575000000000000000e+02
-1.631250000000000000e+02,-1.618562469999999962e+02,-3.575000000000000000e+02
-1.631250000000000000e+02,-1.611531219999999962e+02,-3.575000000000000000e+02
-1.631250000000000000e+02,-1.604499969999999962e+02,-3.575000000000000000e+02
-1.631250000000000000e+02,-1.597468719999999962e+02,-3.575000000000000000e+02
-1.631250000000000000e+02,-1.590437469999999962e+02,-3.575000000000000000e+02
-1.631250000000000000e+02,-1.583406219999999962e+02,-3.575000000000000000e+02
-1.631250000000000000e+02,-1.576374969999999962e+02,-3.575000000000000000e+02
-1.631250000000000000e+02,-1.569343719999999962e+02,-3.575000000000000000e+02
-1.631250000000000000e+02,-1.562312469999999962e+02,-3.575000000000000000e+02
-1.631250000000000000e+02,-1.555281219999999962e+02,-3.575000000000000000e+02
-1.631250000000000000e+02,-1.548249969999999962e+02,-3.575000000000000000e+02
-1.634765625000000000e+02,-1.548249969999999962e+02,-3.437500000000000000e+02
-1.631250000000000000e+02,-1.551765594999999962e+02,-3.437500000000000000e+02
-1.631250000000000000e+02,-1.548249969999999962e+02,-3.450000000000000000e+02
-1.631250000000000000e+02,-1.541218719999999962e+02,-3.575000000000000000e+02
-1.634765625000000000e+02,-1.541218719999999962e+02,-3.462500000000000000e+02
-1.631250000000000000e+02,-1.544734344999999962e+02,-3.462500000000000000e+02
-1.631250000000000000e+02,-1.541218719999999962e+02,-3.475000000000000000e+02
-1.631250000000000000e+02,-1.534187469999999962e+02,-3.575000000000000000e+02
-1.634765625000000000e+02,-1.534187469999999962e+02,-3.512500000000000000e+02
-1.631250000000000000e+02,-1.537703094999999962e+02,-3.512500000000000000e+02
-1.631250000000000000e+02,-1.534187469999999962e+02,-3.525000000000000000e+02
-1.631250000000000000e+02,-1.534187469999999962e+02,-3.500000000000000000e+02
-1.631250000000000000e+02,-1.534187469999999962e+02,-3.475000000000000000e+02
-1.631250000000000000e+02,-1.527156219999999962e+02,-3.575000000000000000e+02
-1.634765625000000000e+02,-1.527156219999999962e+02,-3.537500000000000000e+02
-1.631250000000000000e+02,-1.530671844999999962e+02,-3.537500000000000000e+02
-1.631250000000000000e+02,-1.527156219999999962e+02,-3.550000000000000000e+02
-1.634765625000000000e+02,-1.527156219999999962e+02,-3.487500000000000000e+02
-1.631250000000000000e+02,-1.530671844999999962e+02,-3.487500000000000000e+02
-1.631250000000000000e+02,-1.520124969999999962e+02,-3.575000000000000000e+02
-1.631250000000000000e+02,-1.520124969999999962e+02,-3.550000000000000000e+02
-1.631250000000000000e+02,-1.513093719999999962e+02,-3.575000000000000000e+02
-1.631250000000000000e+02,-1.513093719999999962e+02,-3.550000000000000000e+02
-1.631250000000000000e+02,-1.506062469999999962e+02,-3.575000000000000000e+02
-1.631250000000000000e+02,-1.506062469999999962e+02,-3.550000000000000000e+02
-1.631250000000000000e+02,-1.502546844999999962e+02,-3.562500000000000000e+02
-1.624218750000000000e+02,-1.709968719999999962e+02,-3.475000000000000000e+02
-1.624218750000000000e+02,-1.713484344999999962e+02,-3.462500000000000000e+02
-1.624218750000000000e+02,-1.709968719999999962e+02,-3.450000000000000000e+02
-1.624218750000000000e+02,-1.702937469999999962e+02,-3.475000000000000000e+02
-1.624218750000000000e+02,-1.702937469999999962e+02,-3.450000000000000000e+02
-1.624218750000000000e+02,-1.695906219999999962e+02,-3.475000000000000000e+02
-1.624218750000000000e+02,-1.699421844999999962e+02,-3.437500000000000000e+02
-1.627734375000000000e+02,-1.688874969999999962e+02,-3.487500000000000000e+02
-1.624218750000000000e+02,-1.688874969999999962e+02,-3.475000000000000000e+02
-1.624218750000000000e+02,-1.681843719999999962e+02,-3.525000000000000000e+02
-1.624218750000000000e+02,-1.685359344999999962e+02,-3.512500000000000000e+02
-1.624218750000000000e+02,-1.685359344999999962e+02,-3.487500000000000000e+02
-1.627734375000000000e+02,-1.674812469999999962e+02,-3.537500000000000000e+02
-1.624218750000000000e+02,-1.674812469999999962e+02,-3.525000000000000000e+02
-1.624218750000000000e+02,-1.667781219999999962e+02,-3.550000000000000000e+02
-1.624218750000000000e+02,-1.671296844999999962e+02,-3.537500000000000000e+02
-1.624218750000000000e+02,-1.660749969999999962e+02,-3.550000000000000000e+02
-1.624218750000000000e+02,-1.653718719999999962e+02,-3.550000000000000000e+02
-1.624218750000000000e+02,-1.646687469999999962e+02,-3.550000000000000000e+02
-1.627734375000000000e+02,-1.639656219999999962e+02,-3.562500000000000000e+02
-1.624218750000000000e+02,-1.639656219999999962e+02,-3.550000000000000000e+02
-1.627734375000000000e+02,-1.632624969999999962e+02,-3.562500000000000000e+02
-1.624218750000000000e+02,-1.632624969999999962e+02,-3.550000000000000000e+02
-1.624218750000000000e+02,-1.625593719999999962e+02,-3.575000000000000000e+02
-1.624218750000000000e+02,-1.629109344999999962e+02,-3.562500000000000000e+02
-1.624218750000000000e+02,-1.618562469999999962e+02,-3.575000000000000000e+02
-1.624218750000000000e+02,-1.611531219999999962e+02,-3.575000000000000000e+02
-1.624218750000000000e+02,-1.604499969999999962e+02,-3.575000000000000000e+02
-1.624218750000000000e+02,-1.597468719999999962e+02,-3.575000000000000000e+02
-1.624218750000000000e+02,-1.590437469999999962e+02,-3.575000000000000000e+02
-1.624218750000000000e+02,-1.583406219999999962e+02,-3.575000000000000000e+02
-1.624218750000000000e+02,-1.576374969999999962e+02,-3.575000000000000000e+02
-1.624218750000000000e+02,-1.569343719999999962e+02,-3.575000000000000000e+02
-1.624218750000000000e+02,-1.562312469999999962e+02,-3.575000000000000000e+02
-1.624218750000000000e+02,-1.555281219999999962e+02,-3.575000000000000000e+02
-1.624218750000000000e+02,-1.548249969999999962e+02,-3.575000000000000000e+02
-1.627734375000000000e+02,-1.548249969999999962e+02,-3.462500000000000000e+02
-1.624218750000000000e+02,-1.551765594999999962e+02,-3.462500000000000000e+02
-1.624218750000000000e+02,-1.548249969999999962e+02,-3.475000000000000000e+02
-1.624218750000000000e+02,-1.551765594999999962e+02,-3.437500000000000000e+02
-1.624218750000000000e+02,-1.541218719999999962e+02,-3.575000000000000000e+02
-1.627734375000000000e+02,-1.541218719999999962e+02,-3.537500000000000000e+02
-1.624218750000000000e+02,-1.544734344999999962e+02,-3.537500000000000000e+02
-1.624218750000000000e+02,-1.541218719999999962e+02,-3.550000000000000000e+02
-1.627734375000000000e+02,-1.541218719999999962e+02,-3.512500000000000000e+02
-1.624218750000000000e+02,-1.544734344999999962e+02,-3.512500000000000000e+02
-1.624218750000000000e+02,-1.541218719999999962e+02,-3.500000000000000000e+02
-1.624218750000000000e+02,-1.541218719999999962e+02,-3.475000000000000000e+02
-1.624218750000000000e+02,-1.534187469999999962e+02,-3.575000000000000000e+02
-1.627734375000000000e+02,-1.534187469999999962e+02,-3.537500000000000000e+02
-1.624218750000000000e+02,-1.534187469999999962e+02,-3.550000000000000000e+02
-1.627734375000000000e+02,-1.534187469999999962e+02,-3.487500000000000000e+02
-1.624218750000000000e+02,-1.537703094999999962e+02,-3.487500000000000000e+02
-1.624218750000000000e+02,-1.530671844999999962e+02,-3.562500000000000000e+02
-1.627734375000000000e+02,-1.527156219999999962e+02,-3.562500000000000000e+02
-1.627734375000000000e+02,-1.520124969999999962e+02,-3.562500000000000000e+02
-1.627734375000000000e+02,-1.513093719999999962e+02,-3.562500000000000000e+02
-1.627734375000000000e+02,-1.506062469999999962e+02,-3.562500000000000000e+02
-1.620703125000000000e+02,-1.709968719999999962e+02,-3.462500000000000000e+02
-1.617187500000000000e+02,-1.702937469999999962e+02,-3.475000000000000000e+02
-1.617187500000000000e+02,-1.706453094999999962e+02,-3.462500000000000000e+02
-1.617187500000000000e+02,-1.702937469999999962e+02,-3.450000000000000000e+02
-1.617187500000000000e+02,-1.695906219999999962e+02,-3.475000000000000000e+02
-1.617187500000000000e+02,-1.699421844999999962e+02,-3.437500000000000000e+02
-1.617187500000000000e+02,-1.688874969999999962e+02,-3.475000000000000000e+02
-1.617187500000000000e+02,-1.681843719999999962e+02,-3.525000000000000000e+02
-1.617187500000000000e+02,-1.685359344999999962e+02,-3.512500000000000000e+02
-1.617187500000000000e+02,-1.685359344999999962e+02,-3.487500000000000000e+02
-1.617187500000000000e+02,-1.674812469999999962e+02,-3.525000000000000000e+02
-1.620703125000000000e+02,-1.667781219999999962e+02,-3.537500000000000000e+02
-1.617187500000000000e+02,-1.667781219999999962e+02,-3.525000000000000000e+02
-1.617187500000000000e+02,-1.660749969999999962e+02,-3.550000000000000000e+02
-1.617187500000000000e+02,-1.664265594999999962e+02,-3.537500000000000000e+02
-1.617187500000000000e+02,-1.653718719999999962e+02,-3.550000000000000000e+02
-1.617187500000000000e+02,-1.646687469999999962e+02,-3.550000000000000000e+02
-1.617187500000000000e+02,-1.639656219999999962e+02,-3.550000000000000000e+02
-1.617187500000000000e+02,-1.632624969999999962e+02,-3.550000000000000000e+02
-1.620703125000000000e+02,-1.625593719999999962e+02,-3.562500000000000000e+02
-1.617187500000000000e+02,-1.625593719999999962e+02,-3.550000000000000000e+02
-1.617187500000000000e+02,-1.618562469999999962e+02,-3.575000000000000000e+02
-1.617187500000000000e+02,-1.622078094999999962e+02,-3.562500000000000000e+02
-1.617187500000000000e+02,-1.611531219999999962e+02,-3.575000000000000000e+02
-1.617187500000000000e+02,-1.604499969999999962e+02,-3.575000000000000000e+02
-1.617187500000000000e+02,-1.597468719999999962e+02,-3.575000000000000000e+02
-1.617187500000000000e+02,-1.590437469999999962e+02,-3.575000000000000000e+02
-1.617187500000000000e+02,-1.583406219999999962e+02,-3.575000000000000000e+02
-1.617187500000000000e+02,-1.576374969999999962e+02,-3.575000000000000000e+02
-1.620703125000000000e+02,-1.576374969999999962e+02,-3.462500000000000000e+02
-1.617187500000000000e+02,-1.579890594999999962e+02,-3.462500000000000000e+02
-1.617187500000000000e+02,-1.576374969999999962e+02,-3.475000000000000000e+02
-1.617187500000000000e+02,-1.576374969999999962e+02,-3.450000000000000000e+02
-1.617187500000000000e+02,-1.569343719999999962e+02,-3.575000000000000000e+02
-1.620703125000000000e+02,-1.569343719999999962e+02,-3.462500000000000000e+02
-1.617187500000000000e+02,-1.569343719999999962e+02,-3.475000000000000000e+02
-1.617187500000000000e+02,-1.569343719999999962e+02,-3.450000000000000000e+02
-1.617187500000000000e+02,-1.562312469999999962e+02,-3.575000000000000000e+02
-1.620703125000000000e+02,-1.562312469999999962e+02,-3.462500000000000000e+02
-1.617187500000000000e+02,-1.562312469999999962e+02,-3.475000000000000000e+02
-1.617187500000000000e+02,-1.562312469999999962e+02,-3.450000000000000000e+02
-1.617187500000000000e+02,-1.558796844999999962e+02,-3.562500000000000000e+02
-1.620703125000000000e+02,-1.555281219999999962e+02,-3.562500000000000000e+02
-1.620703125000000000e+02,-1.555281219999999962e+02,-3.537500000000000000e+02
-1.617187500000000000e+02,-1.558796844999999962e+02,-3.537500000000000000e+02
-1.617187500000000000e+02,-1.555281219999999962e+02,-3.525000000000000000e+02
-1.620703125000000000e+02,-1.555281219999999962e+02,-3.462500000000000000e+02
-1.617187500000000000e+02,-1.555281219999999962e+02,-3.475000000000000000e+02
-1.617187500000000000e+02,-1.558796844999999962e+02,-3.437500000000000000e+02
-1.620703125000000000e+02,-1.555281219999999962e+02,-3.437500000000000000e+02
-1.620703125000000000e+02,-1.548249969999999962e+02,-3.562500000000000000e+02
-1.620703125000000000e+02,-1.548249969999999962e+02,-3.537500000000000000e+02
-1.617187500000000000e+02,-1.551765594999999962e+02,-3.512500000000000000e+02
-1.620703125000000000e+02,-1.548249969999999962e+02,-3.512500000000000000e+02
-1.617187500000000000e+02,-1.548249969999999962e+02,-3.500000000000000000e+02
