-1.748652343750000000e+02,-1.318261718750000000e+01,-7.817999879999999848e+02
-1.751962890625000000e+02,-1.285156250000000000e+01,-7.817999879999999848e+02
-1.748652343750000000e+02,-1.285156250000000000e+01,-7.802999879999999848e+02
-1.751962890625000000e+02,-1.218945312500000000e+01,-7.837999879999999848e+02
-1.748652343750000000e+02,-1.218945312500000000e+01,-7.842999879999999848e+02
-1.751962890625000000e+02,-1.218945312500000000e+01,-7.807999879999999848e+02
-1.748652343750000000e+02,-1.218945312500000000e+01,-7.802999879999999848e+02
-1.751962890625000000e+02,-1.152734375000000000e+01,-7.837999879999999848e+02
-1.748652343750000000e+02,-1.152734375000000000e+01,-7.842999879999999848e+02
-1.748652343750000000e+02,-1.185839843750000000e+01,-7.807999879999999848e+02
-1.748652343750000000e+02,-1.152734375000000000e+01,-7.812999879999999848e+02
-1.751962890625000000e+02,-1.086523437500000000e+01,-7.847999879999999848e+02
-1.748652343750000000e+02,-1.086523437500000000e+01,-7.852999879999999848e+02
-1.748652343750000000e+02,-1.119628906250000000e+01,-7.847999879999999848e+02
-1.751962890625000000e+02,-1.086523437500000000e+01,-7.837999879999999848e+02
-1.748652343750000000e+02,-1.086523437500000000e+01,-7.812999879999999848e+02
-1.751962890625000000e+02,-1.020312500000000000e+01,-7.847999879999999848e+02
-1.748652343750000000e+02,-1.020312500000000000e+01,-7.852999879999999848e+02
-1.751962890625000000e+02,-1.020312500000000000e+01,-7.837999879999999848e+02
-1.748652343750000000e+02,-1.020312500000000000e+01,-7.812999879999999848e+02
-1.751962890625000000e+02,-9.541015625000000000e+00,-7.847999879999999848e+02
-1.748652343750000000e+02,-9.541015625000000000e+00,-7.852999879999999848e+02
-1.751962890625000000e+02,-9.541015625000000000e+00,-7.837999879999999848e+02
-1.748652343750000000e+02,-9.541015625000000000e+00,-7.812999879999999848e+02
-1.751962890625000000e+02,-8.878906250000000000e+00,-7.847999879999999848e+02
-1.748652343750000000e+02,-8.878906250000000000e+00,-7.852999879999999848e+02
-1.751962890625000000e+02,-8.878906250000000000e+00,-7.837999879999999848e+02
-1.751962890625000000e+02,-8.878906250000000000e+00,-7.817999879999999848e+02
-1.748652343750000000e+02,-8.878906250000000000e+00,-7.812999879999999848e+02
-1.751962890625000000e+02,-8.216796875000000000e+00,-7.847999879999999848e+02
-1.748652343750000000e+02,-8.216796875000000000e+00,-7.852999879999999848e+02
-1.751962890625000000e+02,-8.216796875000000000e+00,-7.837999879999999848e+02
-1.751962890625000000e+02,-8.216796875000000000e+00,-7.817999879999999848e+02
-1.748652343750000000e+02,-8.216796875000000000e+00,-7.812999879999999848e+02
-1.748652343750000000e+02,-7.885742187500000000e+00,-7.847999879999999848e+02
-1.748652343750000000e+02,-7.885742187500000000e+00,-7.837999879999999848e+02
-1.751962890625000000e+02,-7.554687500000000000e+00,-7.827999879999999848e+02
-1.748652343750000000e+02,-7.554687500000000000e+00,-7.832999879999999848e+02
-1.748652343750000000e+02,-7.554687500000000000e+00,-7.822999879999999848e+02
-1.748652343750000000e+02,-7.885742187500000000e+00,-7.817999879999999848e+02
-1.751962890625000000e+02,-6.892578125000000000e+00,-7.827999879999999848e+02
-1.748652343750000000e+02,-6.892578125000000000e+00,-7.832999879999999848e+02
-1.748652343750000000e+02,-6.892578125000000000e+00,-7.822999879999999848e+02
-1.751962890625000000e+02,-6.230468750000000000e+00,-7.847999879999999848e+02
-1.748652343750000000e+02,-6.230468750000000000e+00,-7.852999879999999848e+02
-1.748652343750000000e+02,-6.561523437500000000e+00,-7.847999879999999848e+02
-1.748652343750000000e+02,-6.561523437500000000e+00,-7.837999879999999848e+02
-1.751962890625000000e+02,-6.230468750000000000e+00,-7.837999879999999848e+02
-1.751962890625000000e+02,-6.230468750000000000e+00,-7.827999879999999848e+02
-1.748652343750000000e+02,-6.230468750000000000e+00,-7.822999879999999848e+02
-1.748652343750000000e+02,-5.899414062500000000e+00,-7.847999879999999848e+02
-1.751962890625000000e+02,-5.568359375000000000e+00,-7.837999879999999848e+02
-1.748652343750000000e+02,-5.568359375000000000e+00,-7.842999879999999848e+02
-1.751962890625000000e+02,-5.568359375000000000e+00,-7.827999879999999848e+02
-1.748652343750000000e+02,-5.568359375000000000e+00,-7.822999879999999848e+02
-1.751962890625000000e+02,-4.906250000000000000e+00,-7.837999879999999848e+02
-1.748652343750000000e+02,-4.906250000000000000e+00,-7.842999879999999848e+02
-1.751962890625000000e+02,-4.906250000000000000e+00,-7.827999879999999848e+02
-1.748652343750000000e+02,-4.906250000000000000e+00,-7.822999879999999848e+02
-1.751962890625000000e+02,-4.244140625000000000e+00,-7.837999879999999848e+02
-1.748652343750000000e+02,-4.244140625000000000e+00,-7.842999879999999848e+02
-1.751962890625000000e+02,-4.244140625000000000e+00,-7.827999879999999848e+02
-1.748652343750000000e+02,-4.244140625000000000e+00,-7.822999879999999848e+02
-1.751962890625000000e+02,-3.582031250000000000e+00,-7.837999879999999848e+02
-1.748652343750000000e+02,-3.582031250000000000e+00,-7.842999879999999848e+02
-1.748652343750000000e+02,-3.582031250000000000e+00,-7.822999879999999848e+02
-1.751962890625000000e+02,-2.919921875000000000e+00,-7.837999879999999848e+02
-1.748652343750000000e+02,-2.919921875000000000e+00,-7.842999879999999848e+02
-1.748652343750000000e+02,-2.919921875000000000e+00,-7.822999879999999848e+02
-1.751962890625000000e+02,-2.257812500000000000e+00,-7.837999879999999848e+02
-1.748652343750000000e+02,-2.257812500000000000e+00,-7.842999879999999848e+02
-1.748652343750000000e+02,-2.257812500000000000e+00,-7.822999879999999848e+02
-1.748652343750000000e+02,-1.926757812500000000e+00,-7.837999879999999848e+02
-1.751962890625000000e+02,-1.595703125000000000e+00,-7.827999879999999848e+02
-1.748652343750000000e+02,-1.595703125000000000e+00,-7.832999879999999848e+02
-1.748652343750000000e+02,-1.595703125000000000e+00,-7.822999879999999848e+02
-1.751962890625000000e+02,-9.335937500000000000e-01,-7.827999879999999848e+02
-1.748652343750000000e+02,-9.335937500000000000e-01,-7.832999879999999848e+02
-1.748652343750000000e+02,-9.335937500000000000e-01,-7.822999879999999848e+02
-1.748652343750000000e+02,-6.025390625000000000e-01,-7.827999879999999848e+02
-1.745341796875000000e+02,-1.351367187500000000e+01,-7.837999879999999848e+02
-1.745341796875000000e+02,-1.351367187500000000e+01,-7.827999879999999848e+02
-1.742031250000000000e+02,-1.351367187500000000e+01,-7.812999879999999848e+02
-1.742031250000000000e+02,-1.384472656250000000e+01,-7.807999879999999848e+02
-1.742031250000000000e+02,-1.351367187500000000e+01,-7.802999879999999848e+02
-1.742031250000000000e+02,-1.285156250000000000e+01,-7.842999879999999848e+02
-1.742031250000000000e+02,-1.318261718750000000e+01,-7.837999879999999848e+02
-1.742031250000000000e+02,-1.318261718750000000e+01,-7.827999879999999848e+02
-1.742031250000000000e+02,-1.318261718750000000e+01,-7.817999879999999848e+02
-1.742031250000000000e+02,-1.285156250000000000e+01,-7.802999879999999848e+02
-1.742031250000000000e+02,-1.218945312500000000e+01,-7.842999879999999848e+02
-1.742031250000000000e+02,-1.218945312500000000e+01,-7.802999879999999848e+02
-1.742031250000000000e+02,-1.152734375000000000e+01,-7.842999879999999848e+02
-1.745341796875000000e+02,-1.152734375000000000e+01,-7.807999879999999848e+02
-1.742031250000000000e+02,-1.152734375000000000e+01,-7.802999879999999848e+02
-1.745341796875000000e+02,-1.086523437500000000e+01,-7.847999879999999848e+02
-1.742031250000000000e+02,-1.086523437500000000e+01,-7.842999879999999848e+02
-1.745341796875000000e+02,-1.086523437500000000e+01,-7.807999879999999848e+02
-1.742031250000000000e+02,-1.086523437500000000e+01,-7.802999879999999848e+02
-1.742031250000000000e+02,-1.020312500000000000e+01,-7.852999879999999848e+02
-1.742031250000000000e+02,-1.053417968750000000e+01,-7.847999879999999848e+02
-1.745341796875000000e+02,-1.020312500000000000e+01,-7.807999879999999848e+02
-1.742031250000000000e+02,-1.020312500000000000e+01,-7.802999879999999848e+02
-1.742031250000000000e+02,-9.541015625000000000e+00,-7.852999879999999848e+02
-1.745341796875000000e+02,-9.541015625000000000e+00,-7.807999879999999848e+02
-1.742031250000000000e+02,-9.541015625000000000e+00,-7.802999879999999848e+02
-1.742031250000000000e+02,-8.878906250000000000e+00,-7.852999879999999848e+02
-1.742031250000000000e+02,-9.209960937500000000e+00,-7.807999879999999848e+02
-1.742031250000000000e+02,-8.878906250000000000e+00,-7.812999879999999848e+02
-1.742031250000000000e+02,-8.216796875000000000e+00,-7.852999879999999848e+02
-1.742031250000000000e+02,-8.216796875000000000e+00,-7.812999879999999848e+02
-1.745341796875000000e+02,-7.554687500000000000e+00,-7.847999879999999848e+02
-1.742031250000000000e+02,-7.554687500000000000e+00,-7.852999879999999848e+02
-1.745341796875000000e+02,-7.554687500000000000e+00,-7.837999879999999848e+02
-1.745341796875000000e+02,-7.554687500000000000e+00,-7.817999879999999848e+02
-1.742031250000000000e+02,-7.554687500000000000e+00,-7.812999879999999848e+02
-1.745341796875000000e+02,-6.892578125000000000e+00,-7.847999879999999848e+02
-1.742031250000000000e+02,-6.892578125000000000e+00,-7.852999879999999848e+02
-1.745341796875000000e+02,-6.892578125000000000e+00,-7.837999879999999848e+02
-1.745341796875000000e+02,-6.892578125000000000e+00,-7.817999879999999848e+02
-1.742031250000000000e+02,-6.892578125000000000e+00,-7.812999879999999848e+02
-1.742031250000000000e+02,-6.230468750000000000e+00,-7.852999879999999848e+02
-1.745341796875000000e+02,-6.230468750000000000e+00,-7.817999879999999848e+02
-1.742031250000000000e+02,-6.230468750000000000e+00,-7.812999879999999848e+02
-1.745341796875000000e+02,-5.568359375000000000e+00,-7.847999879999999848e+02
-1.742031250000000000e+02,-5.568359375000000000e+00,-7.852999879999999848e+02
-1.745341796875000000e+02,-5.568359375000000000e+00,-7.817999879999999848e+02
-1.742031250000000000e+02,-5.568359375000000000e+00,-7.812999879999999848e+02
-1.745341796875000000e+02,-4.906250000000000000e+00,-7.847999879999999848e+02
-1.742031250000000000e+02,-4.906250000000000000e+00,-7.852999879999999848e+02
-1.742031250000000000e+02,-5.237304687500000000e+00,-7.817999879999999848e+02
-1.742031250000000000e+02,-4.906250000000000000e+00,-7.822999879999999848e+02
-1.745341796875000000e+02,-4.244140625000000000e+00,-7.847999879999999848e+02
-1.742031250000000000e+02,-4.244140625000000000e+00,-7.852999879999999848e+02
-1.742031250000000000e+02,-4.244140625000000000e+00,-7.822999879999999848e+02
-1.742031250000000000e+02,-3.913085937500000000e+00,-7.847999879999999848e+02
-1.742031250000000000e+02,-3.582031250000000000e+00,-7.842999879999999848e+02
-1.742031250000000000e+02,-3.582031250000000000e+00,-7.822999879999999848e+02
-1.742031250000000000e+02,-2.919921875000000000e+00,-7.842999879999999848e+02
-1.742031250000000000e+02,-2.919921875000000000e+00,-7.822999879999999848e+02
-1.742031250000000000e+02,-2.257812500000000000e+00,-7.842999879999999848e+02
-1.742031250000000000e+02,-2.257812500000000000e+00,-7.822999879999999848e+02
-1.745341796875000000e+02,-1.595703125000000000e+00,-7.837999879999999848e+02
-1.742031250000000000e+02,-1.595703125000000000e+00,-7.842999879999999848e+02
-1.742031250000000000e+02,-1.595703125000000000e+00,-7.822999879999999848e+02
-1.742031250000000000e+02,-1.264648437500000000e+00,-7.837999879999999848e+02
-1.742031250000000000e+02,-9.335937500000000000e-01,-7.832999879999999848e+02
-1.742031250000000000e+02,-9.335937500000000000e-01,-7.822999879999999848e+02
-1.745341796875000000e+02,-2.714843750000000000e-01,-7.827999879999999848e+02
-1.742031250000000000e+02,-2.714843750000000000e-01,-7.832999879999999848e+02
-1.742031250000000000e+02,-2.714843750000000000e-01,-7.822999879999999848e+02
-1.742031250000000000e+02,5.957031250000000000e-02,-7.827999879999999848e+02
-1.735410156250000000e+02,-1.351367187500000000e+01,-7.812999879999999848e+02
-1.735410156250000000e+02,-1.384472656250000000e+01,-7.807999879999999848e+02
-1.735410156250000000e+02,-1.351367187500000000e+01,-7.802999879999999848e+02
-1.738720703125000000e+02,-1.285156250000000000e+01,-7.837999879999999848e+02
-1.735410156250000000e+02,-1.285156250000000000e+01,-7.832999879999999848e+02
-1.735410156250000000e+02,-1.318261718750000000e+01,-7.827999879999999848e+02
-1.735410156250000000e+02,-1.318261718750000000e+01,-7.817999879999999848e+02
-1.735410156250000000e+02,-1.318261718750000000e+01,-7.797999879999999848e+02
-1.738720703125000000e+02,-1.285156250000000000e+01,-7.797999879999999848e+02
-1.735410156250000000e+02,-1.218945312500000000e+01,-7.842999879999999848e+02
-1.735410156250000000e+02,-1.252050781250000000e+01,-7.837999879999999848e+02
-1.735410156250000000e+02,-1.252050781250000000e+01,-7.797999879999999848e+02
-1.735410156250000000e+02,-1.218945312500000000e+01,-7.802999879999999848e+02
-1.735410156250000000e+02,-1.152734375000000000e+01,-7.842999879999999848e+02
-1.735410156250000000e+02,-1.152734375000000000e+01,-7.802999879999999848e+02
-1.735410156250000000e+02,-1.086523437500000000e+01,-7.842999879999999848e+02
-1.735410156250000000e+02,-1.086523437500000000e+01,-7.802999879999999848e+02
-1.735410156250000000e+02,-1.020312500000000000e+01,-7.852999879999999848e+02
-1.735410156250000000e+02,-1.053417968750000000e+01,-7.847999879999999848e+02
-1.735410156250000000e+02,-1.020312500000000000e+01,-7.802999879999999848e+02
-1.735410156250000000e+02,-9.541015625000000000e+00,-7.852999879999999848e+02
-1.735410156250000000e+02,-9.541015625000000000e+00,-7.802999879999999848e+02
-1.735410156250000000e+02,-8.878906250000000000e+00,-7.852999879999999848e+02
-1.735410156250000000e+02,-9.209960937500000000e+00,-7.807999879999999848e+02
-1.735410156250000000e+02,-8.878906250000000000e+00,-7.812999879999999848e+02
-1.735410156250000000e+02,-8.216796875000000000e+00,-7.852999879999999848e+02
-1.735410156250000000e+02,-8.216796875000000000e+00,-7.812999879999999848e+02
-1.738720703125000000e+02,-7.554687500000000000e+00,-7.877999879999999848e+02
-1.735410156250000000e+02,-7.885742187500000000e+00,-7.867999879999999848e+02
-1.738720703125000000e+02,-7.554687500000000000e+00,-7.867999879999999848e+02
-1.735410156250000000e+02,-7.885742187500000000e+00,-7.877999879999999848e+02
-1.735410156250000000e+02,-7.885742187500000000e+00,-7.857999879999999848e+02
-1.738720703125000000e+02,-7.554687500000000000e+00,-7.857999879999999848e+02
-1.735410156250000000e+02,-7.554687500000000000e+00,-7.812999879999999848e+02
-1.738720703125000000e+02,-6.892578125000000000e+00,-7.867999879999999848e+02
-1.738720703125000000e+02,-6.892578125000000000e+00,-7.877999879999999848e+02
-1.735410156250000000e+02,-6.892578125000000000e+00,-7.862999879999999848e+02
-1.735410156250000000e+02,-7.223632812500000000e+00,-7.857999879999999848e+02
-1.735410156250000000e+02,-6.892578125000000000e+00,-7.852999879999999848e+02
-1.735410156250000000e+02,-6.892578125000000000e+00,-7.812999879999999848e+02
-1.735410156250000000e+02,-6.230468750000000000e+00,-7.872999879999999848e+02
-1.735410156250000000e+02,-6.561523437500000000e+00,-7.867999879999999848e+02
-1.738720703125000000e+02,-6.230468750000000000e+00,-7.877999879999999848e+02
-1.735410156250000000e+02,-6.230468750000000000e+00,-7.862999879999999848e+02
-1.738720703125000000e+02,-6.230468750000000000e+00,-7.857999879999999848e+02
-1.735410156250000000e+02,-6.561523437500000000e+00,-7.857999879999999848e+02
-1.735410156250000000e+02,-6.230468750000000000e+00,-7.812999879999999848e+02
-1.735410156250000000e+02,-5.899414062500000000e+00,-7.877999879999999848e+02
-1.738720703125000000e+02,-5.568359375000000000e+00,-7.857999879999999848e+02
-1.735410156250000000e+02,-5.568359375000000000e+00,-7.862999879999999848e+02
-1.735410156250000000e+02,-5.568359375000000000e+00,-7.812999879999999848e+02
-1.738720703125000000e+02,-4.906250000000000000e+00,-7.857999879999999848e+02
-1.735410156250000000e+02,-4.906250000000000000e+00,-7.862999879999999848e+02
-1.735410156250000000e+02,-5.237304687500000000e+00,-7.817999879999999848e+02
-1.735410156250000000e+02,-4.906250000000000000e+00,-7.822999879999999848e+02
-1.735410156250000000e+02,-4.575195312500000000e+00,-7.857999879999999848e+02
-1.735410156250000000e+02,-4.244140625000000000e+00,-7.852999879999999848e+02
-1.735410156250000000e+02,-4.244140625000000000e+00,-7.822999879999999848e+02
-1.738720703125000000e+02,-3.582031250000000000e+00,-7.847999879999999848e+02
-1.735410156250000000e+02,-3.582031250000000000e+00,-7.852999879999999848e+02
-1.735410156250000000e+02,-3.582031250000000000e+00,-7.822999879999999848e+02
-1.735410156250000000e+02,-3.250976562500000000e+00,-7.847999879999999848e+02
-1.735410156250000000e+02,-2.919921875000000000e+00,-7.842999879999999848e+02
-1.735410156250000000e+02,-2.919921875000000000e+00,-7.822999879999999848e+02
-1.735410156250000000e+02,-2.257812500000000000e+00,-7.842999879999999848e+02
-1.735410156250000000e+02,-2.257812500000000000e+00,-7.822999879999999848e+02
-1.735410156250000000e+02,-1.595703125000000000e+00,-7.842999879999999848e+02
-1.735410156250000000e+02,-1.595703125000000000e+00,-7.822999879999999848e+02
-1.738720703125000000e+02,-9.335937500000000000e-01,-7.837999879999999848e+02
-1.735410156250000000e+02,-9.335937500000000000e-01,-7.842999879999999848e+02
-1.735410156250000000e+02,-9.335937500000000000e-01,-7.822999879999999848e+02
-1.735410156250000000e+02,-6.025390625000000000e-01,-7.837999879999999848e+02
-1.735410156250000000e+02,-2.714843750000000000e-01,-7.832999879999999848e+02
-1.735410156250000000e+02,-2.714843750000000000e-01,-7.822999879999999848e+02
-1.735410156250000000e+02,5.957031250000000000e-02,-7.827999879999999848e+02
-1.728789062500000000e+02,-1.351367187500000000e+01,-7.812999879999999848e+02
-1.728789062500000000e+02,-1.384472656250000000e+01,-7.807999879999999848e+02
-1.728789062500000000e+02,-1.351367187500000000e+01,-7.802999879999999848e+02
-1.728789062500000000e+02,-1.285156250000000000e+01,-7.832999879999999848e+02
-1.728789062500000000e+02,-1.318261718750000000e+01,-7.827999879999999848e+02
-1.728789062500000000e+02,-1.318261718750000000e+01,-7.817999879999999848e+02
-1.728789062500000000e+02,-1.318261718750000000e+01,-7.797999879999999848e+02
-1.728789062500000000e+02,-1.218945312500000000e+01,-7.842999879999999848e+02
-1.728789062500000000e+02,-1.252050781250000000e+01,-7.837999879999999848e+02
-1.732099609375000000e+02,-1.218945312500000000e+01,-7.797999879999999848e+02
-1.728789062500000000e+02,-1.152734375000000000e+01,-7.842999879999999848e+02
-1.732099609375000000e+02,-1.152734375000000000e+01,-7.797999879999999848e+02
-1.732099609375000000e+02,-1.086523437500000000e+01,-7.847999879999999848e+02
-1.728789062500000000e+02,-1.086523437500000000e+01,-7.852999879999999848e+02
-1.728789062500000000e+02,-1.119628906250000000e+01,-7.847999879999999848e+02
-1.732099609375000000e+02,-1.086523437500000000e+01,-7.797999879999999848e+02
-1.728789062500000000e+02,-1.020312500000000000e+01,-7.852999879999999848e+02
-1.732099609375000000e+02,-1.020312500000000000e+01,-7.797999879999999848e+02
-1.728789062500000000e+02,-9.541015625000000000e+00,-7.852999879999999848e+02
-1.728789062500000000e+02,-9.872070312500000000e+00,-7.797999879999999848e+02
-1.728789062500000000e+02,-9.541015625000000000e+00,-7.802999879999999848e+02
-1.732099609375000000e+02,-8.878906250000000000e+00,-7.857999879999999848e+02
-1.728789062500000000e+02,-8.878906250000000000e+00,-7.862999879999999848e+02
-1.728789062500000000e+02,-9.209960937500000000e+00,-7.857999879999999848e+02
-1.728789062500000000e+02,-9.209960937500000000e+00,-7.807999879999999848e+02
-1.728789062500000000e+02,-8.878906250000000000e+00,-7.812999879999999848e+02
-1.732099609375000000e+02,-8.216796875000000000e+00,-7.867999879999999848e+02
-1.728789062500000000e+02,-8.216796875000000000e+00,-7.872999879999999848e+02
-1.728789062500000000e+02,-8.547851562500000000e+00,-7.867999879999999848e+02
-1.732099609375000000e+02,-8.216796875000000000e+00,-7.857999879999999848e+02
-1.728789062500000000e+02,-8.216796875000000000e+00,-7.812999879999999848e+02
-1.728789062500000000e+02,-7.885742187500000000e+00,-7.877999879999999848e+02
-1.728789062500000000e+02,-7.554687500000000000e+00,-7.812999879999999848e+02
-1.732099609375000000e+02,-6.892578125000000000e+00,-7.857999879999999848e+02
-1.728789062500000000e+02,-6.892578125000000000e+00,-7.812999879999999848e+02
-1.732099609375000000e+02,-6.230468750000000000e+00,-7.867999879999999848e+02
-1.728789062500000000e+02,-6.230468750000000000e+00,-7.812999879999999848e+02
-1.728789062500000000e+02,-5.568359375000000000e+00,-7.872999879999999848e+02
-1.732099609375000000e+02,-5.568359375000000000e+00,-7.877999879999999848e+02
-1.728789062500000000e+02,-5.899414062500000000e+00,-7.867999879999999848e+02
-1.728789062500000000e+02,-5.568359375000000000e+00,-7.862999879999999848e+02
-1.728789062500000000e+02,-5.568359375000000000e+00,-7.812999879999999848e+02
-1.728789062500000000e+02,-5.237304687500000000e+00,-7.877999879999999848e+02
-1.728789062500000000e+02,-4.906250000000000000e+00,-7.862999879999999848e+02
-1.728789062500000000e+02,-5.237304687500000000e+00,-7.817999879999999848e+02
-1.728789062500000000e+02,-4.906250000000000000e+00,-7.822999879999999848e+02
-1.728789062500000000e+02,-4.575195312500000000e+00,-7.857999879999999848e+02
-1.728789062500000000e+02,-4.244140625000000000e+00,-7.852999879999999848e+02
-1.728789062500000000e+02,-4.244140625000000000e+00,-7.822999879999999848e+02
-1.728789062500000000e+02,-3.582031250000000000e+00,-7.852999879999999848e+02
-1.728789062500000000e+02,-3.582031250000000000e+00,-7.822999879999999848e+02
-1.732099609375000000e+02,-2.919921875000000000e+00,-7.847999879999999848e+02
-1.728789062500000000e+02,-2.919921875000000000e+00,-7.852999879999999848e+02
-1.728789062500000000e+02,-2.919921875000000000e+00,-7.822999879999999848e+02
-1.728789062500000000e+02,-2.588867187500000000e+00,-7.847999879999999848e+02
-1.728789062500000000e+02,-2.257812500000000000e+00,-7.842999879999999848e+02
-1.728789062500000000e+02,-2.257812500000000000e+00,-7.822999879999999848e+02
-1.732099609375000000e+02,-1.595703125000000000e+00,-7.847999879999999848e+02
-1.728789062500000000e+02,-1.595703125000000000e+00,-7.852999879999999848e+02
-1.728789062500000000e+02,-1.926757812500000000e+00,-7.847999879999999848e+02
-1.728789062500000000e+02,-1.595703125000000000e+00,-7.822999879999999848e+02
-1.728789062500000000e+02,-1.264648437500000000e+00,-7.847999879999999848e+02
-1.728789062500000000e+02,-9.335937500000000000e-01,-7.842999879999999848e+02
-1.728789062500000000e+02,-9.335937500000000000e-01,-7.822999879999999848e+02
-1.732099609375000000e+02,-2.714843750000000000e-01,-7.837999879999999848e+02
-1.728789062500000000e+02,-2.714843750000000000e-01,-7.842999879999999848e+02
-1.728789062500000000e+02,-2.714843750000000000e-01,-7.822999879999999848e+02
-1.728789062500000000e+02,5.957031250000000000e-02,-7.837999879999999848e+02
-1.728789062500000000e+02,5.957031250000000000e-02,-7.827999879999999848e+02
-1.725478515625000000e+02,-1.351367187500000000e+01,-7.817999879999999848e+02
-1.722167968750000000e+02,-1.351367187500000000e+01,-7.822999879999999848e+02
-1.722167968750000000e+02,-1.384472656250000000e+01,-7.817999879999999848e+02
-1.722167968750000000e+02,-1.384472656250000000e+01,-7.807999879999999848e+02
-1.722167968750000000e+02,-1.351367187500000000e+01,-7.802999879999999848e+02
-1.722167968750000000e+02,-1.285156250000000000e+01,-7.832999879999999848e+02
-1.722167968750000000e+02,-1.318261718750000000e+01,-7.827999879999999848e+02
-1.722167968750000000e+02,-1.318261718750000000e+01,-7.797999879999999848e+02
-1.725478515625000000e+02,-1.218945312500000000e+01,-7.837999879999999848e+02
-1.722167968750000000e+02,-1.218945312500000000e+01,-7.832999879999999848e+02
-1.725478515625000000e+02,-1.152734375000000000e+01,-7.847999879999999848e+02
-1.722167968750000000e+02,-1.152734375000000000e+01,-7.852999879999999848e+02
-1.722167968750000000e+02,-1.185839843750000000e+01,-7.847999879999999848e+02
-1.722167968750000000e+02,-1.185839843750000000e+01,-7.837999879999999848e+02
-1.722167968750000000e+02,-1.086523437500000000e+01,-7.852999879999999848e+02
-1.722167968750000000e+02,-1.020312500000000000e+01,-7.852999879999999848e+02
-1.725478515625000000e+02,-9.541015625000000000e+00,-7.867999879999999848e+02
-1.722167968750000000e+02,-9.541015625000000000e+00,-7.872999879999999848e+02
-1.722167968750000000e+02,-9.872070312500000000e+00,-7.867999879999999848e+02
-1.722167968750000000e+02,-9.872070312500000000e+00,-7.857999879999999848e+02
-1.725478515625000000e+02,-9.541015625000000000e+00,-7.857999879999999848e+02
-1.725478515625000000e+02,-9.541015625000000000e+00,-7.797999879999999848e+02
-1.725478515625000000e+02,-8.878906250000000000e+00,-7.867999879999999848e+02
-1.722167968750000000e+02,-8.878906250000000000e+00,-7.872999879999999848e+02
-1.722167968750000000e+02,-9.209960937500000000e+00,-7.807999879999999848e+02
-1.722167968750000000e+02,-8.878906250000000000e+00,-7.812999879999999848e+02
-1.725478515625000000e+02,-8.878906250000000000e+00,-7.797999879999999848e+02
-1.722167968750000000e+02,-8.878906250000000000e+00,-7.802999879999999848e+02
-1.725478515625000000e+02,-8.216796875000000000e+00,-7.877999879999999848e+02
-1.722167968750000000e+02,-8.547851562500000000e+00,-7.877999879999999848e+02
-1.722167968750000000e+02,-8.216796875000000000e+00,-7.812999879999999848e+02
-1.722167968750000000e+02,-8.547851562500000000e+00,-7.797999879999999848e+02
-1.722167968750000000e+02,-7.554687500000000000e+00,-7.812999879999999848e+02
-1.722167968750000000e+02,-6.892578125000000000e+00,-7.812999879999999848e+02
-1.722167968750000000e+02,-6.230468750000000000e+00,-7.812999879999999848e+02
-1.725478515625000000e+02,-5.568359375000000000e+00,-7.867999879999999848e+02
-1.722167968750000000e+02,-5.568359375000000000e+00,-7.812999879999999848e+02
-1.722167968750000000e+02,-5.237304687500000000e+00,-7.877999879999999848e+02
-1.725478515625000000e+02,-4.906250000000000000e+00,-7.867999879999999848e+02
-1.722167968750000000e+02,-4.906250000000000000e+00,-7.872999879999999848e+02
-1.725478515625000000e+02,-4.906250000000000000e+00,-7.817999879999999848e+02
-1.722167968750000000e+02,-4.906250000000000000e+00,-7.812999879999999848e+02
-1.722167968750000000e+02,-4.575195312500000000e+00,-7.867999879999999848e+02
-1.722167968750000000e+02,-4.575195312500000000e+00,-7.857999879999999848e+02
-1.722167968750000000e+02,-4.244140625000000000e+00,-7.852999879999999848e+02
-1.722167968750000000e+02,-4.575195312500000000e+00,-7.817999879999999848e+02
-1.722167968750000000e+02,-4.244140625000000000e+00,-7.822999879999999848e+02
-1.722167968750000000e+02,-3.582031250000000000e+00,-7.852999879999999848e+02
-1.722167968750000000e+02,-3.582031250000000000e+00,-7.822999879999999848e+02
-1.722167968750000000e+02,-2.919921875000000000e+00,-7.852999879999999848e+02
-1.722167968750000000e+02,-2.919921875000000000e+00,-7.822999879999999848e+02
-1.725478515625000000e+02,-2.257812500000000000e+00,-7.847999879999999848e+02
-1.722167968750000000e+02,-2.257812500000000000e+00,-7.852999879999999848e+02
-1.722167968750000000e+02,-2.257812500000000000e+00,-7.822999879999999848e+02
-1.722167968750000000e+02,-1.595703125000000000e+00,-7.852999879999999848e+02
-1.722167968750000000e+02,-1.595703125000000000e+00,-7.822999879999999848e+02
-1.722167968750000000e+02,-1.264648437500000000e+00,-7.847999879999999848e+02
-1.722167968750000000e+02,-9.335937500000000000e-01,-7.842999879999999848e+02
-1.722167968750000000e+02,-9.335937500000000000e-01,-7.822999879999999848e+02
-1.722167968750000000e+02,-6.025390625000000000e-01,-7.837999879999999848e+02
-1.725478515625000000e+02,-2.714843750000000000e-01,-7.837999879999999848e+02
-1.725478515625000000e+02,-2.714843750000000000e-01,-7.827999879999999848e+02
-1.722167968750000000e+02,-6.025390625000000000e-01,-7.827999879999999848e+02
-1.715546875000000000e+02,-1.351367187500000000e+01,-7.822999879999999848e+02
-1.715546875000000000e+02,-1.384472656250000000e+01,-7.817999879999999848e+02
-1.715546875000000000e+02,-1.384472656250000000e+01,-7.807999879999999848e+02
-1.715546875000000000e+02,-1.351367187500000000e+01,-7.802999879999999848e+02
-1.718857421875000000e+02,-1.285156250000000000e+01,-7.827999879999999848e+02
-1.715546875000000000e+02,-1.285156250000000000e+01,-7.822999879999999848e+02
-1.715546875000000000e+02,-1.318261718750000000e+01,-7.797999879999999848e+02
-1.715546875000000000e+02,-1.218945312500000000e+01,-7.832999879999999848e+02
-1.715546875000000000e+02,-1.252050781250000000e+01,-7.827999879999999848e+02
-1.715546875000000000e+02,-1.152734375000000000e+01,-7.852999879999999848e+02
-1.715546875000000000e+02,-1.185839843750000000e+01,-7.847999879999999848e+02
-1.715546875000000000e+02,-1.185839843750000000e+01,-7.837999879999999848e+02
-1.715546875000000000e+02,-1.086523437500000000e+01,-7.852999879999999848e+02
-1.718857421875000000e+02,-1.020312500000000000e+01,-7.867999879999999848e+02
-1.715546875000000000e+02,-1.020312500000000000e+01,-7.872999879999999848e+02
-1.715546875000000000e+02,-1.053417968750000000e+01,-7.867999879999999848e+02
-1.715546875000000000e+02,-1.020312500000000000e+01,-7.862999879999999848e+02
-1.715546875000000000e+02,-1.020312500000000000e+01,-7.852999879999999848e+02
-1.715546875000000000e+02,-9.541015625000000000e+00,-7.872999879999999848e+02
-1.715546875000000000e+02,-9.872070312500000000e+00,-7.857999879999999848e+02
-1.718857421875000000e+02,-8.878906250000000000e+00,-7.877999879999999848e+02
-1.715546875000000000e+02,-9.209960937500000000e+00,-7.877999879999999848e+02
-1.715546875000000000e+02,-9.209960937500000000e+00,-7.807999879999999848e+02
-1.715546875000000000e+02,-8.878906250000000000e+00,-7.812999879999999848e+02
-1.715546875000000000e+02,-8.878906250000000000e+00,-7.802999879999999848e+02
-1.715546875000000000e+02,-8.216796875000000000e+00,-7.812999879999999848e+02
-1.715546875000000000e+02,-8.547851562500000000e+00,-7.797999879999999848e+02
-1.715546875000000000e+02,-7.554687500000000000e+00,-7.812999879999999848e+02
-1.715546875000000000e+02,-6.892578125000000000e+00,-7.812999879999999848e+02
-1.715546875000000000e+02,-6.230468750000000000e+00,-7.812999879999999848e+02
-1.715546875000000000e+02,-5.568359375000000000e+00,-7.812999879999999848e+02
-1.715546875000000000e+02,-5.237304687500000000e+00,-7.877999879999999848e+02
-1.715546875000000000e+02,-4.906250000000000000e+00,-7.872999879999999848e+02
-1.715546875000000000e+02,-4.906250000000000000e+00,-7.812999879999999848e+02
-1.718857421875000000e+02,-4.244140625000000000e+00,-7.867999879999999848e+02
-1.715546875000000000e+02,-4.244140625000000000e+00,-7.872999879999999848e+02
-1.715546875000000000e+02,-4.244140625000000000e+00,-7.862999879999999848e+02
-1.715546875000000000e+02,-4.575195312500000000e+00,-7.857999879999999848e+02
-1.715546875000000000e+02,-4.244140625000000000e+00,-7.852999879999999848e+02
-1.718857421875000000e+02,-4.244140625000000000e+00,-7.817999879999999848e+02
-1.715546875000000000e+02,-4.244140625000000000e+00,-7.812999879999999848e+02
-1.715546875000000000e+02,-3.913085937500000000e+00,-7.867999879999999848e+02
-1.715546875000000000e+02,-3.582031250000000000e+00,-7.852999879999999848e+02
-1.718857421875000000e+02,-3.582031250000000000e+00,-7.817999879999999848e+02
-1.715546875000000000e+02,-3.582031250000000000e+00,-7.812999879999999848e+02
-1.715546875000000000e+02,-2.919921875000000000e+00,-7.852999879999999848e+02
-1.718857421875000000e+02,-2.919921875000000000e+00,-7.817999879999999848e+02
-1.715546875000000000e+02,-2.919921875000000000e+00,-7.812999879999999848e+02
-1.715546875000000000e+02,-2.257812500000000000e+00,-7.852999879999999848e+02
-1.718857421875000000e+02,-2.257812500000000000e+00,-7.817999879999999848e+02
-1.715546875000000000e+02,-2.257812500000000000e+00,-7.812999879999999848e+02
-1.715546875000000000e+02,-1.595703125000000000e+00,-7.852999879999999848e+02
-1.715546875000000000e+02,-1.926757812500000000e+00,-7.817999879999999848e+02
-1.715546875000000000e+02,-1.595703125000000000e+00,-7.822999879999999848e+02
-1.715546875000000000e+02,-1.264648437500000000e+00,-7.847999879999999848e+02
-1.718857421875000000e+02,-9.335937500000000000e-01,-7.837999879999999848e+02
-1.715546875000000000e+02,-1.264648437500000000e+00,-7.837999879999999848e+02
-1.718857421875000000e+02,-9.335937500000000000e-01,-7.827999879999999848e+02
-1.715546875000000000e+02,-1.264648437500000000e+00,-7.827999879999999848e+02
-1.712236328125000000e+02,-1.417578125000000000e+01,-7.817999879999999848e+02
-1.708925781250000000e+02,-1.417578125000000000e+01,-7.822999879999999848e+02
-1.708925781250000000e+02,-1.450683593750000000e+01,-7.817999879999999848e+02
-1.708925781250000000e+02,-1.450683593750000000e+01,-7.807999879999999848e+02
-1.712236328125000000e+02,-1.417578125000000000e+01,-7.807999879999999848e+02
-1.708925781250000000e+02,-1.417578125000000000e+01,-7.802999879999999848e+02
-1.708925781250000000e+02,-1.351367187500000000e+01,-7.822999879999999848e+02
-1.708925781250000000e+02,-1.384472656250000000e+01,-7.797999879999999848e+02
-1.712236328125000000e+02,-1.351367187500000000e+01,-7.797999879999999848e+02
-1.708925781250000000e+02,-1.285156250000000000e+01,-7.822999879999999848e+02
-1.708925781250000000e+02,-1.218945312500000000e+01,-7.832999879999999848e+02
-1.708925781250000000e+02,-1.252050781250000000e+01,-7.827999879999999848e+02
-1.708925781250000000e+02,-1.152734375000000000e+01,-7.852999879999999848e+02
-1.708925781250000000e+02,-1.185839843750000000e+01,-7.847999879999999848e+02
-1.708925781250000000e+02,-1.185839843750000000e+01,-7.837999879999999848e+02
-1.708925781250000000e+02,-1.119628906250000000e+01,-7.877999879999999848e+02
-1.708925781250000000e+02,-1.086523437500000000e+01,-7.872999879999999848e+02
-1.712236328125000000e+02,-1.086523437500000000e+01,-7.877999879999999848e+02
-1.708925781250000000e+02,-1.086523437500000000e+01,-7.852999879999999848e+02
-1.708925781250000000e+02,-1.053417968750000000e+01,-7.867999879999999848e+02
-1.712236328125000000e+02,-1.020312500000000000e+01,-7.877999879999999848e+02
-1.708925781250000000e+02,-1.053417968750000000e+01,-7.857999879999999848e+02
-1.712236328125000000e+02,-1.020312500000000000e+01,-7.857999879999999848e+02
-1.712236328125000000e+02,-9.541015625000000000e+00,-7.877999879999999848e+02
-1.708925781250000000e+02,-9.209960937500000000e+00,-7.807999879999999848e+02
-1.708925781250000000e+02,-8.878906250000000000e+00,-7.812999879999999848e+02
-1.708925781250000000e+02,-8.878906250000000000e+00,-7.802999879999999848e+02
-1.708925781250000000e+02,-8.216796875000000000e+00,-7.812999879999999848e+02
-1.708925781250000000e+02,-8.547851562500000000e+00,-7.797999879999999848e+02
-1.708925781250000000e+02,-7.554687500000000000e+00,-7.812999879999999848e+02
-1.708925781250000000e+02,-6.892578125000000000e+00,-7.812999879999999848e+02
-1.708925781250000000e+02,-6.230468750000000000e+00,-7.812999879999999848e+02
-1.708925781250000000e+02,-5.568359375000000000e+00,-7.812999879999999848e+02
-1.708925781250000000e+02,-5.237304687500000000e+00,-7.877999879999999848e+02
-1.708925781250000000e+02,-4.906250000000000000e+00,-7.872999879999999848e+02
-1.708925781250000000e+02,-4.906250000000000000e+00,-7.812999879999999848e+02
-1.708925781250000000e+02,-4.575195312500000000e+00,-7.867999879999999848e+02
-1.712236328125000000e+02,-4.244140625000000000e+00,-7.867999879999999848e+02
-1.708925781250000000e+02,-4.575195312500000000e+00,-7.857999879999999848e+02
-1.708925781250000000e+02,-4.244140625000000000e+00,-7.852999879999999848e+02
-1.708925781250000000e+02,-4.244140625000000000e+00,-7.812999879999999848e+02
-1.708925781250000000e+02,-3.913085937500000000e+00,-7.847999879999999848e+02
-1.712236328125000000e+02,-3.582031250000000000e+00,-7.847999879999999848e+02
-1.708925781250000000e+02,-3.582031250000000000e+00,-7.842999879999999848e+02
-1.708925781250000000e+02,-3.582031250000000000e+00,-7.812999879999999848e+02
-1.712236328125000000e+02,-2.919921875000000000e+00,-7.847999879999999848e+02
-1.708925781250000000e+02,-2.919921875000000000e+00,-7.842999879999999848e+02
-1.708925781250000000e+02,-2.919921875000000000e+00,-7.812999879999999848e+02
-1.712236328125000000e+02,-2.257812500000000000e+00,-7.847999879999999848e+02
-1.708925781250000000e+02,-2.257812500000000000e+00,-7.842999879999999848e+02
-1.712236328125000000e+02,-2.257812500000000000e+00,-7.817999879999999848e+02
-1.708925781250000000e+02,-2.588867187500000000e+00,-7.817999879999999848e+02
-1.708925781250000000e+02,-2.257812500000000000e+00,-7.822999879999999848e+02
-1.712236328125000000e+02,-1.595703125000000000e+00,-7.847999879999999848e+02
-1.708925781250000000e+02,-1.926757812500000000e+00,-7.837999879999999848e+02
-1.712236328125000000e+02,-1.595703125000000000e+00,-7.837999879999999848e+02
-1.712236328125000000e+02,-1.595703125000000000e+00,-7.827999879999999848e+02
-1.708925781250000000e+02,-1.926757812500000000e+00,-7.827999879999999848e+02
-1.705615234375000000e+02,-1.483789062500000000e+01,-7.817999879999999848e+02
-1.702304687500000000e+02,-1.483789062500000000e+01,-7.822999879999999848e+02
-1.702304687500000000e+02,-1.516894531250000000e+01,-7.817999879999999848e+02
-1.702304687500000000e+02,-1.516894531250000000e+01,-7.807999879999999848e+02
-1.705615234375000000e+02,-1.483789062500000000e+01,-7.807999879999999848e+02
-1.702304687500000000e+02,-1.516894531250000000e+01,-7.797999879999999848e+02
-1.705615234375000000e+02,-1.483789062500000000e+01,-7.797999879999999848e+02
-1.702304687500000000e+02,-1.417578125000000000e+01,-7.822999879999999848e+02
-1.705615234375000000e+02,-1.417578125000000000e+01,-7.797999879999999848e+02
-1.702304687500000000e+02,-1.351367187500000000e+01,-7.822999879999999848e+02
-1.702304687500000000e+02,-1.285156250000000000e+01,-7.822999879999999848e+02
-1.702304687500000000e+02,-1.218945312500000000e+01,-7.832999879999999848e+02
-1.702304687500000000e+02,-1.252050781250000000e+01,-7.827999879999999848e+02
-1.702304687500000000e+02,-1.185839843750000000e+01,-7.877999879999999848e+02
-1.702304687500000000e+02,-1.152734375000000000e+01,-7.872999879999999848e+02
-1.705615234375000000e+02,-1.152734375000000000e+01,-7.877999879999999848e+02
-1.705615234375000000e+02,-1.152734375000000000e+01,-7.847999879999999848e+02
-1.702304687500000000e+02,-1.152734375000000000e+01,-7.842999879999999848e+02
-1.702304687500000000e+02,-1.185839843750000000e+01,-7.837999879999999848e+02
-1.702304687500000000e+02,-1.086523437500000000e+01,-7.872999879999999848e+02
-1.702304687500000000e+02,-1.086523437500000000e+01,-7.852999879999999848e+02
-1.702304687500000000e+02,-1.119628906250000000e+01,-7.847999879999999848e+02
-1.705615234375000000e+02,-1.020312500000000000e+01,-7.867999879999999848e+02
-1.702304687500000000e+02,-1.020312500000000000e+01,-7.872999879999999848e+02
-1.702304687500000000e+02,-1.020312500000000000e+01,-7.862999879999999848e+02
-1.702304687500000000e+02,-1.053417968750000000e+01,-7.857999879999999848e+02
-1.702304687500000000e+02,-9.872070312500000000e+00,-7.867999879999999848e+02
-1.702304687500000000e+02,-9.209960937500000000e+00,-7.807999879999999848e+02
-1.702304687500000000e+02,-8.878906250000000000e+00,-7.812999879999999848e+02
-1.702304687500000000e+02,-8.878906250000000000e+00,-7.802999879999999848e+02
-1.702304687500000000e+02,-8.216796875000000000e+00,-7.812999879999999848e+02
-1.702304687500000000e+02,-8.547851562500000000e+00,-7.797999879999999848e+02
-1.702304687500000000e+02,-7.554687500000000000e+00,-7.812999879999999848e+02
-1.702304687500000000e+02,-6.892578125000000000e+00,-7.812999879999999848e+02
-1.702304687500000000e+02,-6.230468750000000000e+00,-7.812999879999999848e+02
-1.702304687500000000e+02,-5.899414062500000000e+00,-7.877999879999999848e+02
-1.705615234375000000e+02,-5.568359375000000000e+00,-7.877999879999999848e+02
-1.702304687500000000e+02,-5.568359375000000000e+00,-7.872999879999999848e+02
-1.702304687500000000e+02,-5.568359375000000000e+00,-7.812999879999999848e+02
-1.705615234375000000e+02,-4.906250000000000000e+00,-7.867999879999999848e+02
-1.702304687500000000e+02,-5.237304687500000000e+00,-7.867999879999999848e+02
-1.702304687500000000e+02,-4.906250000000000000e+00,-7.862999879999999848e+02
-1.705615234375000000e+02,-4.906250000000000000e+00,-7.847999879999999848e+02
-1.702304687500000000e+02,-5.237304687500000000e+00,-7.847999879999999848e+02
-1.702304687500000000e+02,-4.906250000000000000e+00,-7.852999879999999848e+02
-1.702304687500000000e+02,-4.906250000000000000e+00,-7.842999879999999848e+02
-1.702304687500000000e+02,-4.906250000000000000e+00,-7.812999879999999848e+02
-1.702304687500000000e+02,-4.575195312500000000e+00,-7.857999879999999848e+02
-1.705615234375000000e+02,-4.244140625000000000e+00,-7.847999879999999848e+02
-1.702304687500000000e+02,-4.244140625000000000e+00,-7.842999879999999848e+02
-1.702304687500000000e+02,-4.244140625000000000e+00,-7.812999879999999848e+02
-1.702304687500000000e+02,-3.582031250000000000e+00,-7.842999879999999848e+02
-1.705615234375000000e+02,-3.582031250000000000e+00,-7.817999879999999848e+02
-1.702304687500000000e+02,-3.913085937500000000e+00,-7.817999879999999848e+02
-1.702304687500000000e+02,-3.582031250000000000e+00,-7.822999879999999848e+02
-1.702304687500000000e+02,-2.919921875000000000e+00,-7.842999879999999848e+02
-1.705615234375000000e+02,-2.919921875000000000e+00,-7.817999879999999848e+02
-1.702304687500000000e+02,-2.919921875000000000e+00,-7.822999879999999848e+02
-1.702304687500000000e+02,-2.588867187500000000e+00,-7.837999879999999848e+02
-1.705615234375000000e+02,-2.257812500000000000e+00,-7.837999879999999848e+02
-1.702304687500000000e+02,-2.257812500000000000e+00,-7.832999879999999848e+02
-1.702304687500000000e+02,-2.257812500000000000e+00,-7.822999879999999848e+02
-1.702304687500000000e+02,-1.926757812500000000e+00,-7.827999879999999848e+02
-1.695683593750000000e+02,-1.483789062500000000e+01,-7.822999879999999848e+02
-1.695683593750000000e+02,-1.516894531250000000e+01,-7.817999879999999848e+02
-1.695683593750000000e+02,-1.516894531250000000e+01,-7.807999879999999848e+02
-1.698994140625000000e+02,-1.483789062500000000e+01,-7.797999879999999848e+02
-1.695683593750000000e+02,-1.483789062500000000e+01,-7.802999879999999848e+02
-1.695683593750000000e+02,-1.417578125000000000e+01,-7.822999879999999848e+02
-1.695683593750000000e+02,-1.450683593750000000e+01,-7.797999879999999848e+02
-1.695683593750000000e+02,-1.351367187500000000e+01,-7.822999879999999848e+02
-1.695683593750000000e+02,-1.285156250000000000e+01,-7.822999879999999848e+02
-1.695683593750000000e+02,-1.218945312500000000e+01,-7.832999879999999848e+02
-1.695683593750000000e+02,-1.252050781250000000e+01,-7.827999879999999848e+02
-1.698994140625000000e+02,-1.152734375000000000e+01,-7.877999879999999848e+02
-1.695683593750000000e+02,-1.152734375000000000e+01,-7.842999879999999848e+02
-1.695683593750000000e+02,-1.185839843750000000e+01,-7.837999879999999848e+02
-1.698994140625000000e+02,-1.086523437500000000e+01,-7.877999879999999848e+02
-1.698994140625000000e+02,-1.086523437500000000e+01,-7.857999879999999848e+02
-1.695683593750000000e+02,-1.086523437500000000e+01,-7.862999879999999848e+02
-1.695683593750000000e+02,-1.119628906250000000e+01,-7.857999879999999848e+02
-1.695683593750000000e+02,-1.119628906250000000e+01,-7.847999879999999848e+02
-1.695683593750000000e+02,-1.053417968750000000e+01,-7.877999879999999848e+02
-1.695683593750000000e+02,-1.020312500000000000e+01,-7.872999879999999848e+02
-1.695683593750000000e+02,-1.020312500000000000e+01,-7.862999879999999848e+02
-1.698994140625000000e+02,-9.541015625000000000e+00,-7.867999879999999848e+02
-1.695683593750000000e+02,-9.541015625000000000e+00,-7.872999879999999848e+02
-1.695683593750000000e+02,-9.541015625000000000e+00,-7.862999879999999848e+02
-1.695683593750000000e+02,-9.209960937500000000e+00,-7.867999879999999848e+02
-1.698994140625000000e+02,-8.878906250000000000e+00,-7.807999879999999848e+02
-1.695683593750000000e+02,-9.209960937500000000e+00,-7.797999879999999848e+02
-1.695683593750000000e+02,-8.878906250000000000e+00,-7.802999879999999848e+02
-1.698994140625000000e+02,-8.878906250000000000e+00,-7.797999879999999848e+02
-1.695683593750000000e+02,-8.547851562500000000e+00,-7.807999879999999848e+02
-1.695683593750000000e+02,-8.216796875000000000e+00,-7.812999879999999848e+02
-1.695683593750000000e+02,-7.554687500000000000e+00,-7.812999879999999848e+02
-1.695683593750000000e+02,-7.223632812500000000e+00,-7.877999879999999848e+02
-1.698994140625000000e+02,-6.892578125000000000e+00,-7.877999879999999848e+02
-1.695683593750000000e+02,-6.892578125000000000e+00,-7.872999879999999848e+02
-1.695683593750000000e+02,-6.892578125000000000e+00,-7.812999879999999848e+02
-1.695683593750000000e+02,-6.561523437500000000e+00,-7.867999879999999848e+02
-1.698994140625000000e+02,-6.230468750000000000e+00,-7.867999879999999848e+02
-1.698994140625000000e+02,-6.230468750000000000e+00,-7.877999879999999848e+02
-1.695683593750000000e+02,-6.230468750000000000e+00,-7.862999879999999848e+02
-1.695683593750000000e+02,-6.230468750000000000e+00,-7.812999879999999848e+02
-1.698994140625000000e+02,-5.568359375000000000e+00,-7.867999879999999848e+02
-1.695683593750000000e+02,-5.568359375000000000e+00,-7.862999879999999848e+02
-1.698994140625000000e+02,-5.568359375000000000e+00,-7.847999879999999848e+02
-1.695683593750000000e+02,-5.899414062500000000e+00,-7.847999879999999848e+02
-1.695683593750000000e+02,-5.568359375000000000e+00,-7.852999879999999848e+02
-1.695683593750000000e+02,-5.568359375000000000e+00,-7.842999879999999848e+02
-1.695683593750000000e+02,-5.568359375000000000e+00,-7.812999879999999848e+02
-1.698994140625000000e+02,-4.906250000000000000e+00,-7.857999879999999848e+02
-1.695683593750000000e+02,-5.237304687500000000e+00,-7.857999879999999848e+02
-1.695683593750000000e+02,-4.906250000000000000e+00,-7.842999879999999848e+02
-1.695683593750000000e+02,-4.906250000000000000e+00,-7.812999879999999848e+02
-1.695683593750000000e+02,-4.244140625000000000e+00,-7.842999879999999848e+02
-1.698994140625000000e+02,-4.244140625000000000e+00,-7.817999879999999848e+02
-1.695683593750000000e+02,-4.575195312500000000e+00,-7.817999879999999848e+02
-1.695683593750000000e+02,-4.244140625000000000e+00,-7.822999879999999848e+02
-1.695683593750000000e+02,-3.582031250000000000e+00,-7.842999879999999848e+02
-1.695683593750000000e+02,-3.582031250000000000e+00,-7.822999879999999848e+02
-1.695683593750000000e+02,-3.250976562500000000e+00,-7.837999879999999848e+02
-1.698994140625000000e+02,-2.919921875000000000e+00,-7.837999879999999848e+02
-1.695683593750000000e+02,-2.919921875000000000e+00,-7.832999879999999848e+02
-1.695683593750000000e+02,-2.919921875000000000e+00,-7.822999879999999848e+02
-1.698994140625000000e+02,-2.257812500000000000e+00,-7.827999879999999848e+02
-1.695683593750000000e+02,-2.588867187500000000e+00,-7.827999879999999848e+02
-1.689062500000000000e+02,-1.483789062500000000e+01,-7.822999879999999848e+02
-1.689062500000000000e+02,-1.516894531250000000e+01,-7.817999879999999848e+02
-1.689062500000000000e+02,-1.516894531250000000e+01,-7.807999879999999848e+02
-1.689062500000000000e+02,-1.483789062500000000e+01,-7.802999879999999848e+02
-1.689062500000000000e+02,-1.417578125000000000e+01,-7.822999879999999848e+02
-1.692373046875000000e+02,-1.417578125000000000e+01,-7.797999879999999848e+02
-1.689062500000000000e+02,-1.417578125000000000e+01,-7.802999879999999848e+02
-1.689062500000000000e+02,-1.351367187500000000e+01,-7.822999879999999848e+02
-1.689062500000000000e+02,-1.384472656250000000e+01,-7.797999879999999848e+02
-1.689062500000000000e+02,-1.285156250000000000e+01,-7.822999879999999848e+02
-1.692373046875000000e+02,-1.218945312500000000e+01,-7.827999879999999848e+02
