-1.610070310000000120e+02,-1.240703100000000063e+02,-2.732500000000000000e+02
-1.607140620000000126e+02,-1.240703100000000063e+02,-2.745000000000000000e+02
-1.607140620000000126e+02,-1.243632790000000057e+02,-2.732500000000000000e+02
-1.607140620000000126e+02,-1.240703100000000063e+02,-2.720000000000000000e+02
-1.610070310000000120e+02,-1.234843720000000076e+02,-2.732500000000000000e+02
-1.607140620000000126e+02,-1.234843720000000076e+02,-2.745000000000000000e+02
-1.607140620000000126e+02,-1.234843720000000076e+02,-2.720000000000000000e+02
-1.610070310000000120e+02,-1.228984339999999946e+02,-2.732500000000000000e+02
-1.607140620000000126e+02,-1.228984339999999946e+02,-2.745000000000000000e+02
-1.607140620000000126e+02,-1.228984339999999946e+02,-2.720000000000000000e+02
-1.610070310000000120e+02,-1.223124959999999959e+02,-2.732500000000000000e+02
-1.607140620000000126e+02,-1.223124959999999959e+02,-2.745000000000000000e+02
-1.607140620000000126e+02,-1.223124959999999959e+02,-2.720000000000000000e+02
-1.610070310000000120e+02,-1.217265579999999972e+02,-2.732500000000000000e+02
-1.607140620000000126e+02,-1.217265579999999972e+02,-2.745000000000000000e+02
-1.607140620000000126e+02,-1.217265579999999972e+02,-2.720000000000000000e+02
-1.610070310000000120e+02,-1.211406199999999984e+02,-2.732500000000000000e+02
-1.607140620000000126e+02,-1.211406199999999984e+02,-2.745000000000000000e+02
-1.607140620000000126e+02,-1.211406199999999984e+02,-2.720000000000000000e+02
-1.607140620000000126e+02,-1.208476509999999990e+02,-2.732500000000000000e+02
-1.604210930000000133e+02,-1.252421860000000038e+02,-2.732500000000000000e+02
-1.601281240000000139e+02,-1.252421860000000038e+02,-2.745000000000000000e+02
-1.601281240000000139e+02,-1.255351550000000032e+02,-2.732500000000000000e+02
-1.601281240000000139e+02,-1.252421860000000038e+02,-2.720000000000000000e+02
-1.604210930000000133e+02,-1.246562480000000050e+02,-2.732500000000000000e+02
-1.601281240000000139e+02,-1.246562480000000050e+02,-2.745000000000000000e+02
-1.601281240000000139e+02,-1.249492170000000044e+02,-2.707500000000000000e+02
-1.604210930000000133e+02,-1.246562480000000050e+02,-2.707500000000000000e+02
-1.601281240000000139e+02,-1.240703100000000063e+02,-2.745000000000000000e+02
-1.601281240000000139e+02,-1.243632790000000057e+02,-2.707500000000000000e+02
-1.601281240000000139e+02,-1.240703100000000063e+02,-2.720000000000000000e+02
-1.601281240000000139e+02,-1.234843720000000076e+02,-2.745000000000000000e+02
-1.601281240000000139e+02,-1.234843720000000076e+02,-2.720000000000000000e+02
-1.601281240000000139e+02,-1.228984339999999946e+02,-2.745000000000000000e+02
-1.601281240000000139e+02,-1.228984339999999946e+02,-2.720000000000000000e+02
-1.601281240000000139e+02,-1.223124959999999959e+02,-2.745000000000000000e+02
-1.601281240000000139e+02,-1.223124959999999959e+02,-2.720000000000000000e+02
-1.601281240000000139e+02,-1.217265579999999972e+02,-2.745000000000000000e+02
-1.601281240000000139e+02,-1.217265579999999972e+02,-2.720000000000000000e+02
-1.601281240000000139e+02,-1.211406199999999984e+02,-2.745000000000000000e+02
-1.601281240000000139e+02,-1.211406199999999984e+02,-2.720000000000000000e+02
-1.604210930000000133e+02,-1.205546819999999997e+02,-2.732500000000000000e+02
-1.601281240000000139e+02,-1.205546819999999997e+02,-2.745000000000000000e+02
-1.601281240000000139e+02,-1.205546819999999997e+02,-2.720000000000000000e+02
-1.601281240000000139e+02,-1.202617130000000003e+02,-2.732500000000000000e+02
-1.598351550000000145e+02,-1.258281240000000025e+02,-2.732500000000000000e+02
-1.595421860000000152e+02,-1.258281240000000025e+02,-2.745000000000000000e+02
-1.595421860000000152e+02,-1.261210930000000019e+02,-2.732500000000000000e+02
-1.595421860000000152e+02,-1.258281240000000025e+02,-2.720000000000000000e+02
-1.595421860000000152e+02,-1.252421860000000038e+02,-2.745000000000000000e+02
-1.595421860000000152e+02,-1.255351550000000032e+02,-2.707500000000000000e+02
-1.598351550000000145e+02,-1.252421860000000038e+02,-2.707500000000000000e+02
-1.598351550000000145e+02,-1.246562480000000050e+02,-2.757500000000000000e+02
-1.595421860000000152e+02,-1.249492170000000044e+02,-2.757500000000000000e+02
-1.598351550000000145e+02,-1.240703100000000063e+02,-2.757500000000000000e+02
-1.598351550000000145e+02,-1.240703100000000063e+02,-2.707500000000000000e+02
-1.598351550000000145e+02,-1.234843720000000076e+02,-2.757500000000000000e+02
-1.598351550000000145e+02,-1.234843720000000076e+02,-2.707500000000000000e+02
-1.598351550000000145e+02,-1.228984339999999946e+02,-2.757500000000000000e+02
-1.598351550000000145e+02,-1.228984339999999946e+02,-2.707500000000000000e+02
-1.598351550000000145e+02,-1.223124959999999959e+02,-2.757500000000000000e+02
-1.598351550000000145e+02,-1.223124959999999959e+02,-2.707500000000000000e+02
-1.595421860000000152e+02,-1.220195269999999965e+02,-2.757500000000000000e+02
-1.595421860000000152e+02,-1.217265579999999972e+02,-2.745000000000000000e+02
-1.598351550000000145e+02,-1.217265579999999972e+02,-2.707500000000000000e+02
-1.595421860000000152e+02,-1.211406199999999984e+02,-2.745000000000000000e+02
-1.598351550000000145e+02,-1.211406199999999984e+02,-2.707500000000000000e+02
-1.595421860000000152e+02,-1.205546819999999997e+02,-2.745000000000000000e+02
-1.595421860000000152e+02,-1.208476509999999990e+02,-2.707500000000000000e+02
-1.595421860000000152e+02,-1.205546819999999997e+02,-2.720000000000000000e+02
-1.598351550000000145e+02,-1.199687440000000009e+02,-2.732500000000000000e+02
-1.595421860000000152e+02,-1.199687440000000009e+02,-2.745000000000000000e+02
-1.595421860000000152e+02,-1.199687440000000009e+02,-2.720000000000000000e+02
-1.595421860000000152e+02,-1.196757750000000016e+02,-2.732500000000000000e+02
-1.589562480000000164e+02,-1.258281240000000025e+02,-2.745000000000000000e+02
-1.589562480000000164e+02,-1.261210930000000019e+02,-2.732500000000000000e+02
-1.589562480000000164e+02,-1.261210930000000019e+02,-2.707500000000000000e+02
-1.592492170000000158e+02,-1.258281240000000025e+02,-2.707500000000000000e+02
-1.592492170000000158e+02,-1.252421860000000038e+02,-2.757500000000000000e+02
-1.589562480000000164e+02,-1.255351550000000032e+02,-2.757500000000000000e+02
-1.592492170000000158e+02,-1.217265579999999972e+02,-2.757500000000000000e+02
-1.592492170000000158e+02,-1.211406199999999984e+02,-2.757500000000000000e+02
-1.589562480000000164e+02,-1.208476509999999990e+02,-2.757500000000000000e+02
-1.589562480000000164e+02,-1.205546819999999997e+02,-2.745000000000000000e+02
-1.592492170000000158e+02,-1.205546819999999997e+02,-2.707500000000000000e+02
-1.589562480000000164e+02,-1.199687440000000009e+02,-2.745000000000000000e+02
-1.589562480000000164e+02,-1.202617130000000003e+02,-2.707500000000000000e+02
-1.589562480000000164e+02,-1.199687440000000009e+02,-2.720000000000000000e+02
-1.592492170000000158e+02,-1.193828060000000022e+02,-2.732500000000000000e+02
-1.589562480000000164e+02,-1.193828060000000022e+02,-2.745000000000000000e+02
-1.589562480000000164e+02,-1.193828060000000022e+02,-2.720000000000000000e+02
-1.589562480000000164e+02,-1.190898370000000028e+02,-2.732500000000000000e+02
-1.583703100000000177e+02,-1.258281240000000025e+02,-2.745000000000000000e+02
-1.583703100000000177e+02,-1.261210930000000019e+02,-2.732500000000000000e+02
-1.583703100000000177e+02,-1.261210930000000019e+02,-2.707500000000000000e+02
-1.583703100000000177e+02,-1.255351550000000032e+02,-2.757500000000000000e+02
-1.586632790000000170e+02,-1.205546819999999997e+02,-2.757500000000000000e+02
-1.583703100000000177e+02,-1.202617130000000003e+02,-2.757500000000000000e+02
-1.583703100000000177e+02,-1.199687440000000009e+02,-2.745000000000000000e+02
-1.586632790000000170e+02,-1.199687440000000009e+02,-2.707500000000000000e+02
-1.583703100000000177e+02,-1.193828060000000022e+02,-2.745000000000000000e+02
-1.583703100000000177e+02,-1.196757750000000016e+02,-2.707500000000000000e+02
-1.583703100000000177e+02,-1.193828060000000022e+02,-2.720000000000000000e+02
-1.586632790000000170e+02,-1.187968680000000035e+02,-2.732500000000000000e+02
-1.583703100000000177e+02,-1.187968680000000035e+02,-2.745000000000000000e+02
-1.583703100000000177e+02,-1.187968680000000035e+02,-2.720000000000000000e+02
-1.583703100000000177e+02,-1.185038990000000041e+02,-2.732500000000000000e+02
-1.580773410000000183e+02,-1.264140620000000013e+02,-2.707500000000000000e+02
-1.577843720000000189e+02,-1.264140620000000013e+02,-2.720000000000000000e+02
-1.577843720000000189e+02,-1.267070310000000006e+02,-2.707500000000000000e+02
-1.577843720000000189e+02,-1.258281240000000025e+02,-2.745000000000000000e+02
-1.577843720000000189e+02,-1.261210930000000019e+02,-2.732500000000000000e+02
-1.577843720000000189e+02,-1.255351550000000032e+02,-2.757500000000000000e+02
-1.577843720000000189e+02,-1.202617130000000003e+02,-2.757500000000000000e+02
-1.577843720000000189e+02,-1.199687440000000009e+02,-2.745000000000000000e+02
-1.577843720000000189e+02,-1.193828060000000022e+02,-2.745000000000000000e+02
-1.577843720000000189e+02,-1.196757750000000016e+02,-2.707500000000000000e+02
-1.577843720000000189e+02,-1.193828060000000022e+02,-2.720000000000000000e+02
-1.577843720000000189e+02,-1.187968680000000035e+02,-2.745000000000000000e+02
-1.577843720000000189e+02,-1.187968680000000035e+02,-2.720000000000000000e+02
-1.577843720000000189e+02,-1.185038990000000041e+02,-2.732500000000000000e+02
-1.574914030000000196e+02,-1.264140620000000013e+02,-2.707500000000000000e+02
-1.571984340000000202e+02,-1.258281240000000025e+02,-2.745000000000000000e+02
-1.571984340000000202e+02,-1.261210930000000019e+02,-2.732500000000000000e+02
-1.574914030000000196e+02,-1.258281240000000025e+02,-2.707500000000000000e+02
-1.571984340000000202e+02,-1.258281240000000025e+02,-2.720000000000000000e+02
-1.571984340000000202e+02,-1.255351550000000032e+02,-2.757500000000000000e+02
-1.571984340000000202e+02,-1.255351550000000032e+02,-2.707500000000000000e+02
-1.571984340000000202e+02,-1.208476509999999990e+02,-2.757500000000000000e+02
-1.574914030000000196e+02,-1.205546819999999997e+02,-2.757500000000000000e+02
-1.571984340000000202e+02,-1.205546819999999997e+02,-2.745000000000000000e+02
-1.571984340000000202e+02,-1.199687440000000009e+02,-2.745000000000000000e+02
-1.571984340000000202e+02,-1.193828060000000022e+02,-2.745000000000000000e+02
-1.571984340000000202e+02,-1.196757750000000016e+02,-2.707500000000000000e+02
-1.571984340000000202e+02,-1.193828060000000022e+02,-2.720000000000000000e+02
-1.571984340000000202e+02,-1.187968680000000035e+02,-2.745000000000000000e+02
-1.571984340000000202e+02,-1.187968680000000035e+02,-2.720000000000000000e+02
-1.571984340000000202e+02,-1.185038990000000041e+02,-2.732500000000000000e+02
-1.569054650000000208e+02,-1.258281240000000025e+02,-2.732500000000000000e+02
-1.569054650000000208e+02,-1.252421860000000038e+02,-2.757500000000000000e+02
-1.566124960000000215e+02,-1.252421860000000038e+02,-2.745000000000000000e+02
-1.566124960000000215e+02,-1.255351550000000032e+02,-2.732500000000000000e+02
-1.569054650000000208e+02,-1.252421860000000038e+02,-2.707500000000000000e+02
-1.566124960000000215e+02,-1.252421860000000038e+02,-2.720000000000000000e+02
-1.566124960000000215e+02,-1.249492170000000044e+02,-2.757500000000000000e+02
-1.566124960000000215e+02,-1.249492170000000044e+02,-2.707500000000000000e+02
-1.566124960000000215e+02,-1.208476509999999990e+02,-2.757500000000000000e+02
-1.566124960000000215e+02,-1.205546819999999997e+02,-2.745000000000000000e+02
-1.569054650000000208e+02,-1.205546819999999997e+02,-2.707500000000000000e+02
-1.566124960000000215e+02,-1.208476509999999990e+02,-2.707500000000000000e+02
-1.566124960000000215e+02,-1.205546819999999997e+02,-2.720000000000000000e+02
-1.566124960000000215e+02,-1.199687440000000009e+02,-2.745000000000000000e+02
-1.569054650000000208e+02,-1.199687440000000009e+02,-2.707500000000000000e+02
-1.566124960000000215e+02,-1.199687440000000009e+02,-2.720000000000000000e+02
-1.566124960000000215e+02,-1.193828060000000022e+02,-2.745000000000000000e+02
-1.566124960000000215e+02,-1.193828060000000022e+02,-2.720000000000000000e+02
-1.566124960000000215e+02,-1.190898370000000028e+02,-2.732500000000000000e+02
-1.569054650000000208e+02,-1.187968680000000035e+02,-2.732500000000000000e+02
-1.560265580000000227e+02,-1.252421860000000038e+02,-2.745000000000000000e+02
-1.560265580000000227e+02,-1.255351550000000032e+02,-2.732500000000000000e+02
-1.560265580000000227e+02,-1.252421860000000038e+02,-2.720000000000000000e+02
-1.563195270000000221e+02,-1.246562480000000050e+02,-2.757500000000000000e+02
-1.560265580000000227e+02,-1.246562480000000050e+02,-2.745000000000000000e+02
-1.563195270000000221e+02,-1.246562480000000050e+02,-2.707500000000000000e+02
-1.560265580000000227e+02,-1.246562480000000050e+02,-2.720000000000000000e+02
-1.560265580000000227e+02,-1.243632790000000057e+02,-2.757500000000000000e+02
-1.560265580000000227e+02,-1.243632790000000057e+02,-2.707500000000000000e+02
-1.563195270000000221e+02,-1.217265579999999972e+02,-2.707500000000000000e+02
-1.560265580000000227e+02,-1.220195269999999965e+02,-2.707500000000000000e+02
-1.560265580000000227e+02,-1.217265579999999972e+02,-2.720000000000000000e+02
-1.563195270000000221e+02,-1.211406199999999984e+02,-2.707500000000000000e+02
-1.560265580000000227e+02,-1.211406199999999984e+02,-2.720000000000000000e+02
-1.560265580000000227e+02,-1.208476509999999990e+02,-2.757500000000000000e+02
-1.560265580000000227e+02,-1.205546819999999997e+02,-2.745000000000000000e+02
-1.560265580000000227e+02,-1.205546819999999997e+02,-2.720000000000000000e+02
-1.560265580000000227e+02,-1.199687440000000009e+02,-2.745000000000000000e+02
-1.560265580000000227e+02,-1.199687440000000009e+02,-2.720000000000000000e+02
-1.560265580000000227e+02,-1.196757750000000016e+02,-2.732500000000000000e+02
-1.563195270000000221e+02,-1.193828060000000022e+02,-2.732500000000000000e+02
-1.557335890000000234e+02,-1.252421860000000038e+02,-2.732500000000000000e+02
-1.557335890000000234e+02,-1.246562480000000050e+02,-2.732500000000000000e+02
-1.557335890000000234e+02,-1.240703100000000063e+02,-2.757500000000000000e+02
-1.557335890000000234e+02,-1.240703100000000063e+02,-2.732500000000000000e+02
-1.557335890000000234e+02,-1.240703100000000063e+02,-2.707500000000000000e+02
-1.557335890000000234e+02,-1.234843720000000076e+02,-2.732500000000000000e+02
-1.557335890000000234e+02,-1.234843720000000076e+02,-2.757500000000000000e+02
-1.557335890000000234e+02,-1.234843720000000076e+02,-2.707500000000000000e+02
-1.557335890000000234e+02,-1.228984339999999946e+02,-2.732500000000000000e+02
-1.557335890000000234e+02,-1.228984339999999946e+02,-2.757500000000000000e+02
-1.557335890000000234e+02,-1.228984339999999946e+02,-2.707500000000000000e+02
-1.557335890000000234e+02,-1.223124959999999959e+02,-2.732500000000000000e+02
-1.557335890000000234e+02,-1.223124959999999959e+02,-2.757500000000000000e+02
-1.557335890000000234e+02,-1.223124959999999959e+02,-2.707500000000000000e+02
-1.557335890000000234e+02,-1.217265579999999972e+02,-2.732500000000000000e+02
-1.557335890000000234e+02,-1.217265579999999972e+02,-2.757500000000000000e+02
-1.557335890000000234e+02,-1.211406199999999984e+02,-2.732500000000000000e+02
-1.557335890000000234e+02,-1.211406199999999984e+02,-2.757500000000000000e+02
-1.557335890000000234e+02,-1.205546819999999997e+02,-2.732500000000000000e+02
-1.557335890000000234e+02,-1.199687440000000009e+02,-2.732500000000000000e+02
