-1.771875000000000000e+02,-1.583500060000000076e+02,-3.260000000000000000e+02
-1.771875000000000000e+02,-1.583500060000000076e+02,-3.235000000000000000e+02
-1.771875000000000000e+02,-1.579984435000000076e+02,-3.322500000000000000e+02
-1.771875000000000000e+02,-1.579984435000000076e+02,-3.297500000000000000e+02
-1.771875000000000000e+02,-1.579984435000000076e+02,-3.247500000000000000e+02
-1.764843750000000000e+02,-1.622171935000000076e+02,-3.297500000000000000e+02
-1.764843750000000000e+02,-1.622171935000000076e+02,-3.322500000000000000e+02
-1.764843750000000000e+02,-1.622171935000000076e+02,-3.272500000000000000e+02
-1.764843750000000000e+02,-1.618656310000000076e+02,-3.260000000000000000e+02
-1.764843750000000000e+02,-1.615140685000000076e+02,-3.247500000000000000e+02
-1.764843750000000000e+02,-1.615140685000000076e+02,-3.222500000000000000e+02
-1.768359375000000000e+02,-1.611625060000000076e+02,-3.222500000000000000e+02
-1.764843750000000000e+02,-1.611625060000000076e+02,-3.210000000000000000e+02
-1.768359375000000000e+02,-1.604593810000000076e+02,-3.222500000000000000e+02
-1.764843750000000000e+02,-1.604593810000000076e+02,-3.210000000000000000e+02
-1.764843750000000000e+02,-1.597562560000000076e+02,-3.210000000000000000e+02
-1.764843750000000000e+02,-1.594046935000000076e+02,-3.222500000000000000e+02
-1.764843750000000000e+02,-1.590531310000000076e+02,-3.235000000000000000e+02
-1.764843750000000000e+02,-1.587015685000000076e+02,-3.272500000000000000e+02
-1.764843750000000000e+02,-1.583500060000000076e+02,-3.285000000000000000e+02
-1.764843750000000000e+02,-1.583500060000000076e+02,-3.260000000000000000e+02
-1.764843750000000000e+02,-1.583500060000000076e+02,-3.235000000000000000e+02
-1.764843750000000000e+02,-1.576468810000000076e+02,-3.310000000000000000e+02
-1.768359375000000000e+02,-1.576468810000000076e+02,-3.322500000000000000e+02
-1.764843750000000000e+02,-1.579984435000000076e+02,-3.297500000000000000e+02
-1.764843750000000000e+02,-1.579984435000000076e+02,-3.247500000000000000e+02
-1.764843750000000000e+02,-1.572953185000000076e+02,-3.322500000000000000e+02
-1.761328125000000000e+02,-1.625687560000000076e+02,-3.297500000000000000e+02
-1.757812500000000000e+02,-1.625687560000000076e+02,-3.310000000000000000e+02
-1.757812500000000000e+02,-1.629203185000000076e+02,-3.297500000000000000e+02
-1.757812500000000000e+02,-1.629203185000000076e+02,-3.272500000000000000e+02
-1.761328125000000000e+02,-1.625687560000000076e+02,-3.272500000000000000e+02
-1.757812500000000000e+02,-1.625687560000000076e+02,-3.260000000000000000e+02
-1.757812500000000000e+02,-1.622171935000000076e+02,-3.322500000000000000e+02
-1.757812500000000000e+02,-1.622171935000000076e+02,-3.247500000000000000e+02
-1.761328125000000000e+02,-1.618656310000000076e+02,-3.247500000000000000e+02
-1.757812500000000000e+02,-1.622171935000000076e+02,-3.222500000000000000e+02
-1.761328125000000000e+02,-1.618656310000000076e+02,-3.222500000000000000e+02
-1.757812500000000000e+02,-1.618656310000000076e+02,-3.210000000000000000e+02
-1.757812500000000000e+02,-1.611625060000000076e+02,-3.210000000000000000e+02
-1.757812500000000000e+02,-1.604593810000000076e+02,-3.210000000000000000e+02
-1.757812500000000000e+02,-1.597562560000000076e+02,-3.210000000000000000e+02
-1.757812500000000000e+02,-1.594046935000000076e+02,-3.222500000000000000e+02
-1.757812500000000000e+02,-1.590531310000000076e+02,-3.235000000000000000e+02
-1.761328125000000000e+02,-1.583500060000000076e+02,-3.272500000000000000e+02
-1.757812500000000000e+02,-1.583500060000000076e+02,-3.235000000000000000e+02
-1.761328125000000000e+02,-1.576468810000000076e+02,-3.297500000000000000e+02
-1.757812500000000000e+02,-1.576468810000000076e+02,-3.285000000000000000e+02
-1.757812500000000000e+02,-1.579984435000000076e+02,-3.272500000000000000e+02
-1.761328125000000000e+02,-1.576468810000000076e+02,-3.247500000000000000e+02
-1.757812500000000000e+02,-1.576468810000000076e+02,-3.260000000000000000e+02
-1.757812500000000000e+02,-1.576468810000000076e+02,-3.235000000000000000e+02
-1.757812500000000000e+02,-1.569437560000000076e+02,-3.310000000000000000e+02
-1.761328125000000000e+02,-1.569437560000000076e+02,-3.322500000000000000e+02
-1.757812500000000000e+02,-1.572953185000000076e+02,-3.297500000000000000e+02
-1.757812500000000000e+02,-1.572953185000000076e+02,-3.247500000000000000e+02
-1.757812500000000000e+02,-1.565921935000000076e+02,-3.322500000000000000e+02
-1.754296875000000000e+02,-1.632718810000000076e+02,-3.297500000000000000e+02
-1.750781250000000000e+02,-1.632718810000000076e+02,-3.310000000000000000e+02
-1.750781250000000000e+02,-1.636234435000000076e+02,-3.297500000000000000e+02
-1.750781250000000000e+02,-1.636234435000000076e+02,-3.272500000000000000e+02
-1.754296875000000000e+02,-1.632718810000000076e+02,-3.272500000000000000e+02
-1.750781250000000000e+02,-1.632718810000000076e+02,-3.260000000000000000e+02
-1.754296875000000000e+02,-1.625687560000000076e+02,-3.322500000000000000e+02
-1.750781250000000000e+02,-1.629203185000000076e+02,-3.322500000000000000e+02
-1.750781250000000000e+02,-1.629203185000000076e+02,-3.247500000000000000e+02
-1.754296875000000000e+02,-1.625687560000000076e+02,-3.247500000000000000e+02
-1.750781250000000000e+02,-1.629203185000000076e+02,-3.222500000000000000e+02
-1.754296875000000000e+02,-1.625687560000000076e+02,-3.222500000000000000e+02
-1.750781250000000000e+02,-1.625687560000000076e+02,-3.210000000000000000e+02
-1.750781250000000000e+02,-1.618656310000000076e+02,-3.210000000000000000e+02
-1.750781250000000000e+02,-1.611625060000000076e+02,-3.210000000000000000e+02
-1.750781250000000000e+02,-1.604593810000000076e+02,-3.210000000000000000e+02
-1.750781250000000000e+02,-1.597562560000000076e+02,-3.210000000000000000e+02
-1.750781250000000000e+02,-1.594046935000000076e+02,-3.222500000000000000e+02
-1.750781250000000000e+02,-1.590531310000000076e+02,-3.235000000000000000e+02
-1.750781250000000000e+02,-1.583500060000000076e+02,-3.235000000000000000e+02
-1.750781250000000000e+02,-1.579984435000000076e+02,-3.272500000000000000e+02
-1.750781250000000000e+02,-1.576468810000000076e+02,-3.285000000000000000e+02
-1.750781250000000000e+02,-1.576468810000000076e+02,-3.260000000000000000e+02
-1.750781250000000000e+02,-1.576468810000000076e+02,-3.235000000000000000e+02
-1.750781250000000000e+02,-1.572953185000000076e+02,-3.297500000000000000e+02
-1.750781250000000000e+02,-1.569437560000000076e+02,-3.310000000000000000e+02
-1.750781250000000000e+02,-1.572953185000000076e+02,-3.247500000000000000e+02
-1.750781250000000000e+02,-1.562406310000000076e+02,-3.310000000000000000e+02
-1.754296875000000000e+02,-1.562406310000000076e+02,-3.322500000000000000e+02
-1.750781250000000000e+02,-1.558890685000000076e+02,-3.322500000000000000e+02
-1.747265625000000000e+02,-1.639750060000000076e+02,-3.297500000000000000e+02
-1.743750000000000000e+02,-1.639750060000000076e+02,-3.310000000000000000e+02
-1.743750000000000000e+02,-1.643265685000000076e+02,-3.297500000000000000e+02
-1.743750000000000000e+02,-1.643265685000000076e+02,-3.272500000000000000e+02
-1.747265625000000000e+02,-1.639750060000000076e+02,-3.272500000000000000e+02
-1.743750000000000000e+02,-1.639750060000000076e+02,-3.260000000000000000e+02
-1.747265625000000000e+02,-1.632718810000000076e+02,-3.322500000000000000e+02
-1.743750000000000000e+02,-1.636234435000000076e+02,-3.322500000000000000e+02
-1.743750000000000000e+02,-1.636234435000000076e+02,-3.247500000000000000e+02
-1.747265625000000000e+02,-1.632718810000000076e+02,-3.247500000000000000e+02
-1.743750000000000000e+02,-1.636234435000000076e+02,-3.222500000000000000e+02
-1.747265625000000000e+02,-1.632718810000000076e+02,-3.222500000000000000e+02
-1.743750000000000000e+02,-1.632718810000000076e+02,-3.210000000000000000e+02
-1.743750000000000000e+02,-1.625687560000000076e+02,-3.210000000000000000e+02
-1.743750000000000000e+02,-1.618656310000000076e+02,-3.210000000000000000e+02
-1.743750000000000000e+02,-1.615140685000000076e+02,-3.197500000000000000e+02
-1.747265625000000000e+02,-1.611625060000000076e+02,-3.197500000000000000e+02
-1.743750000000000000e+02,-1.611625060000000076e+02,-3.185000000000000000e+02
-1.743750000000000000e+02,-1.608109435000000076e+02,-3.197500000000000000e+02
-1.743750000000000000e+02,-1.604593810000000076e+02,-3.210000000000000000e+02
-1.743750000000000000e+02,-1.597562560000000076e+02,-3.210000000000000000e+02
-1.743750000000000000e+02,-1.594046935000000076e+02,-3.222500000000000000e+02
-1.743750000000000000e+02,-1.590531310000000076e+02,-3.235000000000000000e+02
-1.743750000000000000e+02,-1.583500060000000076e+02,-3.235000000000000000e+02
-1.743750000000000000e+02,-1.579984435000000076e+02,-3.272500000000000000e+02
-1.743750000000000000e+02,-1.576468810000000076e+02,-3.285000000000000000e+02
-1.743750000000000000e+02,-1.576468810000000076e+02,-3.260000000000000000e+02
-1.743750000000000000e+02,-1.576468810000000076e+02,-3.235000000000000000e+02
-1.743750000000000000e+02,-1.572953185000000076e+02,-3.297500000000000000e+02
-1.743750000000000000e+02,-1.569437560000000076e+02,-3.310000000000000000e+02
-1.743750000000000000e+02,-1.572953185000000076e+02,-3.247500000000000000e+02
-1.743750000000000000e+02,-1.562406310000000076e+02,-3.310000000000000000e+02
-1.743750000000000000e+02,-1.558890685000000076e+02,-3.322500000000000000e+02
-1.740234375000000000e+02,-1.646781310000000076e+02,-3.297500000000000000e+02
-1.736718750000000000e+02,-1.646781310000000076e+02,-3.310000000000000000e+02
-1.736718750000000000e+02,-1.650296935000000076e+02,-3.297500000000000000e+02
-1.736718750000000000e+02,-1.650296935000000076e+02,-3.272500000000000000e+02
-1.740234375000000000e+02,-1.646781310000000076e+02,-3.272500000000000000e+02
-1.736718750000000000e+02,-1.646781310000000076e+02,-3.260000000000000000e+02
-1.736718750000000000e+02,-1.639750060000000076e+02,-3.310000000000000000e+02
-1.736718750000000000e+02,-1.643265685000000076e+02,-3.247500000000000000e+02
-1.740234375000000000e+02,-1.639750060000000076e+02,-3.247500000000000000e+02
-1.736718750000000000e+02,-1.643265685000000076e+02,-3.222500000000000000e+02
-1.740234375000000000e+02,-1.639750060000000076e+02,-3.222500000000000000e+02
-1.736718750000000000e+02,-1.639750060000000076e+02,-3.210000000000000000e+02
-1.736718750000000000e+02,-1.636234435000000076e+02,-3.322500000000000000e+02
-1.736718750000000000e+02,-1.632718810000000076e+02,-3.210000000000000000e+02
-1.736718750000000000e+02,-1.625687560000000076e+02,-3.210000000000000000e+02
-1.736718750000000000e+02,-1.622171935000000076e+02,-3.197500000000000000e+02
-1.740234375000000000e+02,-1.618656310000000076e+02,-3.197500000000000000e+02
-1.736718750000000000e+02,-1.618656310000000076e+02,-3.185000000000000000e+02
-1.736718750000000000e+02,-1.611625060000000076e+02,-3.185000000000000000e+02
-1.736718750000000000e+02,-1.608109435000000076e+02,-3.197500000000000000e+02
-1.736718750000000000e+02,-1.604593810000000076e+02,-3.210000000000000000e+02
-1.736718750000000000e+02,-1.597562560000000076e+02,-3.210000000000000000e+02
-1.736718750000000000e+02,-1.594046935000000076e+02,-3.222500000000000000e+02
-1.736718750000000000e+02,-1.590531310000000076e+02,-3.235000000000000000e+02
-1.736718750000000000e+02,-1.583500060000000076e+02,-3.235000000000000000e+02
-1.740234375000000000e+02,-1.576468810000000076e+02,-3.272500000000000000e+02
-1.736718750000000000e+02,-1.576468810000000076e+02,-3.235000000000000000e+02
-1.736718750000000000e+02,-1.572953185000000076e+02,-3.297500000000000000e+02
-1.736718750000000000e+02,-1.569437560000000076e+02,-3.310000000000000000e+02
-1.736718750000000000e+02,-1.572953185000000076e+02,-3.272500000000000000e+02
-1.736718750000000000e+02,-1.572953185000000076e+02,-3.247500000000000000e+02
-1.736718750000000000e+02,-1.562406310000000076e+02,-3.310000000000000000e+02
-1.736718750000000000e+02,-1.558890685000000076e+02,-3.322500000000000000e+02
-1.733203125000000000e+02,-1.660843810000000076e+02,-3.222500000000000000e+02
-1.729687500000000000e+02,-1.660843810000000076e+02,-3.235000000000000000e+02
-1.729687500000000000e+02,-1.664359435000000076e+02,-3.222500000000000000e+02
-1.729687500000000000e+02,-1.660843810000000076e+02,-3.210000000000000000e+02
-1.733203125000000000e+02,-1.653812560000000076e+02,-3.297500000000000000e+02
-1.729687500000000000e+02,-1.653812560000000076e+02,-3.310000000000000000e+02
-1.729687500000000000e+02,-1.657328185000000076e+02,-3.297500000000000000e+02
-1.729687500000000000e+02,-1.653812560000000076e+02,-3.285000000000000000e+02
-1.733203125000000000e+02,-1.653812560000000076e+02,-3.222500000000000000e+02
-1.729687500000000000e+02,-1.653812560000000076e+02,-3.235000000000000000e+02
-1.729687500000000000e+02,-1.653812560000000076e+02,-3.210000000000000000e+02
-1.729687500000000000e+02,-1.646781310000000076e+02,-3.310000000000000000e+02
-1.729687500000000000e+02,-1.650296935000000076e+02,-3.272500000000000000e+02
-1.729687500000000000e+02,-1.650296935000000076e+02,-3.247500000000000000e+02
-1.733203125000000000e+02,-1.646781310000000076e+02,-3.247500000000000000e+02
-1.733203125000000000e+02,-1.646781310000000076e+02,-3.222500000000000000e+02
-1.729687500000000000e+02,-1.646781310000000076e+02,-3.210000000000000000e+02
-1.729687500000000000e+02,-1.639750060000000076e+02,-3.310000000000000000e+02
-1.729687500000000000e+02,-1.639750060000000076e+02,-3.210000000000000000e+02
-1.729687500000000000e+02,-1.636234435000000076e+02,-3.322500000000000000e+02
-1.729687500000000000e+02,-1.632718810000000076e+02,-3.210000000000000000e+02
-1.729687500000000000e+02,-1.629203185000000076e+02,-3.197500000000000000e+02
-1.733203125000000000e+02,-1.625687560000000076e+02,-3.197500000000000000e+02
-1.729687500000000000e+02,-1.625687560000000076e+02,-3.185000000000000000e+02
-1.729687500000000000e+02,-1.618656310000000076e+02,-3.185000000000000000e+02
-1.729687500000000000e+02,-1.615140685000000076e+02,-3.172500000000000000e+02
-1.733203125000000000e+02,-1.611625060000000076e+02,-3.172500000000000000e+02
-1.729687500000000000e+02,-1.608109435000000076e+02,-3.197500000000000000e+02
-1.729687500000000000e+02,-1.604593810000000076e+02,-3.210000000000000000e+02
-1.729687500000000000e+02,-1.608109435000000076e+02,-3.172500000000000000e+02
-1.729687500000000000e+02,-1.597562560000000076e+02,-3.210000000000000000e+02
-1.729687500000000000e+02,-1.594046935000000076e+02,-3.222500000000000000e+02
-1.729687500000000000e+02,-1.590531310000000076e+02,-3.235000000000000000e+02
-1.729687500000000000e+02,-1.583500060000000076e+02,-3.235000000000000000e+02
-1.729687500000000000e+02,-1.576468810000000076e+02,-3.235000000000000000e+02
-1.733203125000000000e+02,-1.569437560000000076e+02,-3.297500000000000000e+02
-1.729687500000000000e+02,-1.569437560000000076e+02,-3.285000000000000000e+02
-1.729687500000000000e+02,-1.572953185000000076e+02,-3.272500000000000000e+02
-1.729687500000000000e+02,-1.572953185000000076e+02,-3.247500000000000000e+02
-1.729687500000000000e+02,-1.565921935000000076e+02,-3.297500000000000000e+02
-1.729687500000000000e+02,-1.562406310000000076e+02,-3.310000000000000000e+02
-1.729687500000000000e+02,-1.558890685000000076e+02,-3.322500000000000000e+02
-1.726171875000000000e+02,-1.667875060000000076e+02,-3.222500000000000000e+02
-1.722656250000000000e+02,-1.667875060000000076e+02,-3.235000000000000000e+02
-1.722656250000000000e+02,-1.671390685000000076e+02,-3.222500000000000000e+02
-1.722656250000000000e+02,-1.667875060000000076e+02,-3.210000000000000000e+02
-1.726171875000000000e+02,-1.660843810000000076e+02,-3.297500000000000000e+02
-1.722656250000000000e+02,-1.660843810000000076e+02,-3.310000000000000000e+02
-1.722656250000000000e+02,-1.664359435000000076e+02,-3.297500000000000000e+02
-1.722656250000000000e+02,-1.660843810000000076e+02,-3.285000000000000000e+02
-1.722656250000000000e+02,-1.660843810000000076e+02,-3.235000000000000000e+02
-1.722656250000000000e+02,-1.660843810000000076e+02,-3.210000000000000000e+02
-1.722656250000000000e+02,-1.653812560000000076e+02,-3.310000000000000000e+02
-1.722656250000000000e+02,-1.657328185000000076e+02,-3.272500000000000000e+02
-1.726171875000000000e+02,-1.653812560000000076e+02,-3.272500000000000000e+02
-1.722656250000000000e+02,-1.657328185000000076e+02,-3.247500000000000000e+02
-1.726171875000000000e+02,-1.653812560000000076e+02,-3.247500000000000000e+02
-1.722656250000000000e+02,-1.653812560000000076e+02,-3.210000000000000000e+02
-1.722656250000000000e+02,-1.646781310000000076e+02,-3.310000000000000000e+02
-1.722656250000000000e+02,-1.646781310000000076e+02,-3.210000000000000000e+02
-1.722656250000000000e+02,-1.639750060000000076e+02,-3.310000000000000000e+02
-1.722656250000000000e+02,-1.643265685000000076e+02,-3.197500000000000000e+02
-1.726171875000000000e+02,-1.639750060000000076e+02,-3.197500000000000000e+02
-1.722656250000000000e+02,-1.639750060000000076e+02,-3.185000000000000000e+02
-1.722656250000000000e+02,-1.636234435000000076e+02,-3.322500000000000000e+02
-1.726171875000000000e+02,-1.632718810000000076e+02,-3.197500000000000000e+02
-1.722656250000000000e+02,-1.632718810000000076e+02,-3.185000000000000000e+02
-1.722656250000000000e+02,-1.625687560000000076e+02,-3.185000000000000000e+02
-1.722656250000000000e+02,-1.622171935000000076e+02,-3.172500000000000000e+02
-1.726171875000000000e+02,-1.618656310000000076e+02,-3.172500000000000000e+02
-1.726171875000000000e+02,-1.604593810000000076e+02,-3.197500000000000000e+02
-1.722656250000000000e+02,-1.604593810000000076e+02,-3.185000000000000000e+02
-1.722656250000000000e+02,-1.608109435000000076e+02,-3.172500000000000000e+02
-1.722656250000000000e+02,-1.601078185000000076e+02,-3.197500000000000000e+02
-1.722656250000000000e+02,-1.597562560000000076e+02,-3.210000000000000000e+02
-1.722656250000000000e+02,-1.594046935000000076e+02,-3.222500000000000000e+02
-1.722656250000000000e+02,-1.590531310000000076e+02,-3.235000000000000000e+02
-1.722656250000000000e+02,-1.583500060000000076e+02,-3.235000000000000000e+02
-1.722656250000000000e+02,-1.576468810000000076e+02,-3.235000000000000000e+02
-1.722656250000000000e+02,-1.572953185000000076e+02,-3.272500000000000000e+02
-1.722656250000000000e+02,-1.569437560000000076e+02,-3.285000000000000000e+02
-1.726171875000000000e+02,-1.569437560000000076e+02,-3.247500000000000000e+02
-1.722656250000000000e+02,-1.569437560000000076e+02,-3.260000000000000000e+02
-1.722656250000000000e+02,-1.569437560000000076e+02,-3.235000000000000000e+02
-1.726171875000000000e+02,-1.562406310000000076e+02,-3.322500000000000000e+02
-1.722656250000000000e+02,-1.565921935000000076e+02,-3.322500000000000000e+02
-1.722656250000000000e+02,-1.565921935000000076e+02,-3.297500000000000000e+02
-1.722656250000000000e+02,-1.565921935000000076e+02,-3.247500000000000000e+02
-1.715625000000000000e+02,-1.667875060000000076e+02,-3.235000000000000000e+02
-1.715625000000000000e+02,-1.671390685000000076e+02,-3.222500000000000000e+02
-1.715625000000000000e+02,-1.667875060000000076e+02,-3.210000000000000000e+02
-1.715625000000000000e+02,-1.660843810000000076e+02,-3.310000000000000000e+02
-1.715625000000000000e+02,-1.664359435000000076e+02,-3.297500000000000000e+02
-1.715625000000000000e+02,-1.664359435000000076e+02,-3.272500000000000000e+02
-1.719140625000000000e+02,-1.660843810000000076e+02,-3.272500000000000000e+02
-1.715625000000000000e+02,-1.664359435000000076e+02,-3.247500000000000000e+02
-1.719140625000000000e+02,-1.660843810000000076e+02,-3.247500000000000000e+02
-1.715625000000000000e+02,-1.660843810000000076e+02,-3.210000000000000000e+02
-1.715625000000000000e+02,-1.653812560000000076e+02,-3.310000000000000000e+02
-1.715625000000000000e+02,-1.653812560000000076e+02,-3.210000000000000000e+02
-1.715625000000000000e+02,-1.646781310000000076e+02,-3.310000000000000000e+02
-1.715625000000000000e+02,-1.646781310000000076e+02,-3.210000000000000000e+02
-1.715625000000000000e+02,-1.639750060000000076e+02,-3.310000000000000000e+02
-1.715625000000000000e+02,-1.643265685000000076e+02,-3.197500000000000000e+02
-1.715625000000000000e+02,-1.639750060000000076e+02,-3.185000000000000000e+02
-1.715625000000000000e+02,-1.636234435000000076e+02,-3.322500000000000000e+02
-1.715625000000000000e+02,-1.632718810000000076e+02,-3.185000000000000000e+02
-1.715625000000000000e+02,-1.629203185000000076e+02,-3.172500000000000000e+02
-1.719140625000000000e+02,-1.625687560000000076e+02,-3.172500000000000000e+02
-1.715625000000000000e+02,-1.608109435000000076e+02,-3.172500000000000000e+02
-1.715625000000000000e+02,-1.604593810000000076e+02,-3.185000000000000000e+02
-1.715625000000000000e+02,-1.601078185000000076e+02,-3.197500000000000000e+02
-1.715625000000000000e+02,-1.597562560000000076e+02,-3.210000000000000000e+02
-1.715625000000000000e+02,-1.594046935000000076e+02,-3.222500000000000000e+02
-1.715625000000000000e+02,-1.590531310000000076e+02,-3.235000000000000000e+02
-1.715625000000000000e+02,-1.583500060000000076e+02,-3.235000000000000000e+02
-1.715625000000000000e+02,-1.576468810000000076e+02,-3.235000000000000000e+02
-1.715625000000000000e+02,-1.572953185000000076e+02,-3.272500000000000000e+02
-1.715625000000000000e+02,-1.569437560000000076e+02,-3.285000000000000000e+02
-1.715625000000000000e+02,-1.569437560000000076e+02,-3.260000000000000000e+02
-1.715625000000000000e+02,-1.569437560000000076e+02,-3.235000000000000000e+02
-1.715625000000000000e+02,-1.565921935000000076e+02,-3.297500000000000000e+02
-1.715625000000000000e+02,-1.565921935000000076e+02,-3.322500000000000000e+02
-1.715625000000000000e+02,-1.565921935000000076e+02,-3.247500000000000000e+02
-1.712109375000000000e+02,-1.674906310000000076e+02,-3.247500000000000000e+02
-1.708593750000000000e+02,-1.674906310000000076e+02,-3.260000000000000000e+02
-1.708593750000000000e+02,-1.678421935000000076e+02,-3.247500000000000000e+02
-1.708593750000000000e+02,-1.674906310000000076e+02,-3.235000000000000000e+02
-1.712109375000000000e+02,-1.667875060000000076e+02,-3.297500000000000000e+02
-1.708593750000000000e+02,-1.667875060000000076e+02,-3.310000000000000000e+02
-1.708593750000000000e+02,-1.671390685000000076e+02,-3.297500000000000000e+02
-1.708593750000000000e+02,-1.667875060000000076e+02,-3.285000000000000000e+02
-1.712109375000000000e+02,-1.667875060000000076e+02,-3.247500000000000000e+02
-1.708593750000000000e+02,-1.667875060000000076e+02,-3.260000000000000000e+02
-1.708593750000000000e+02,-1.671390685000000076e+02,-3.222500000000000000e+02
-1.708593750000000000e+02,-1.667875060000000076e+02,-3.210000000000000000e+02
-1.708593750000000000e+02,-1.660843810000000076e+02,-3.310000000000000000e+02
-1.708593750000000000e+02,-1.664359435000000076e+02,-3.272500000000000000e+02
-1.708593750000000000e+02,-1.660843810000000076e+02,-3.210000000000000000e+02
-1.708593750000000000e+02,-1.653812560000000076e+02,-3.310000000000000000e+02
-1.708593750000000000e+02,-1.653812560000000076e+02,-3.210000000000000000e+02
-1.708593750000000000e+02,-1.646781310000000076e+02,-3.310000000000000000e+02
-1.708593750000000000e+02,-1.650296935000000076e+02,-3.197500000000000000e+02
-1.712109375000000000e+02,-1.646781310000000076e+02,-3.197500000000000000e+02
-1.708593750000000000e+02,-1.646781310000000076e+02,-3.185000000000000000e+02
-1.708593750000000000e+02,-1.639750060000000076e+02,-3.310000000000000000e+02
-1.708593750000000000e+02,-1.639750060000000076e+02,-3.185000000000000000e+02
-1.708593750000000000e+02,-1.636234435000000076e+02,-3.322500000000000000e+02
-1.708593750000000000e+02,-1.636234435000000076e+02,-3.172500000000000000e+02
-1.712109375000000000e+02,-1.632718810000000076e+02,-3.172500000000000000e+02
-1.708593750000000000e+02,-1.608109435000000076e+02,-3.172500000000000000e+02
-1.708593750000000000e+02,-1.604593810000000076e+02,-3.185000000000000000e+02
-1.712109375000000000e+02,-1.597562560000000076e+02,-3.197500000000000000e+02
-1.708593750000000000e+02,-1.597562560000000076e+02,-3.185000000000000000e+02
-1.708593750000000000e+02,-1.594046935000000076e+02,-3.222500000000000000e+02
-1.708593750000000000e+02,-1.590531310000000076e+02,-3.235000000000000000e+02
-1.708593750000000000e+02,-1.594046935000000076e+02,-3.197500000000000000e+02
-1.708593750000000000e+02,-1.583500060000000076e+02,-3.235000000000000000e+02
-1.708593750000000000e+02,-1.576468810000000076e+02,-3.235000000000000000e+02
-1.708593750000000000e+02,-1.572953185000000076e+02,-3.272500000000000000e+02
-1.708593750000000000e+02,-1.569437560000000076e+02,-3.285000000000000000e+02
-1.708593750000000000e+02,-1.569437560000000076e+02,-3.260000000000000000e+02
-1.708593750000000000e+02,-1.569437560000000076e+02,-3.235000000000000000e+02
-1.708593750000000000e+02,-1.565921935000000076e+02,-3.297500000000000000e+02
-1.708593750000000000e+02,-1.565921935000000076e+02,-3.322500000000000000e+02
-1.708593750000000000e+02,-1.565921935000000076e+02,-3.247500000000000000e+02
-1.701562500000000000e+02,-1.674906310000000076e+02,-3.260000000000000000e+02
-1.701562500000000000e+02,-1.678421935000000076e+02,-3.247500000000000000e+02
-1.701562500000000000e+02,-1.674906310000000076e+02,-3.235000000000000000e+02
-1.701562500000000000e+02,-1.667875060000000076e+02,-3.310000000000000000e+02
-1.701562500000000000e+02,-1.671390685000000076e+02,-3.297500000000000000e+02
-1.701562500000000000e+02,-1.671390685000000076e+02,-3.272500000000000000e+02
-1.705078125000000000e+02,-1.667875060000000076e+02,-3.272500000000000000e+02
-1.701562500000000000e+02,-1.671390685000000076e+02,-3.222500000000000000e+02
-1.701562500000000000e+02,-1.667875060000000076e+02,-3.210000000000000000e+02
-1.701562500000000000e+02,-1.660843810000000076e+02,-3.310000000000000000e+02
-1.701562500000000000e+02,-1.660843810000000076e+02,-3.210000000000000000e+02
-1.701562500000000000e+02,-1.653812560000000076e+02,-3.310000000000000000e+02
-1.701562500000000000e+02,-1.653812560000000076e+02,-3.210000000000000000e+02
-1.701562500000000000e+02,-1.646781310000000076e+02,-3.310000000000000000e+02
-1.701562500000000000e+02,-1.650296935000000076e+02,-3.197500000000000000e+02
-1.701562500000000000e+02,-1.646781310000000076e+02,-3.185000000000000000e+02
-1.701562500000000000e+02,-1.639750060000000076e+02,-3.310000000000000000e+02
-1.701562500000000000e+02,-1.639750060000000076e+02,-3.185000000000000000e+02
-1.701562500000000000e+02,-1.636234435000000076e+02,-3.322500000000000000e+02
-1.701562500000000000e+02,-1.636234435000000076e+02,-3.172500000000000000e+02
-1.701562500000000000e+02,-1.608109435000000076e+02,-3.172500000000000000e+02
-1.701562500000000000e+02,-1.604593810000000076e+02,-3.185000000000000000e+02
-1.701562500000000000e+02,-1.597562560000000076e+02,-3.185000000000000000e+02
-1.701562500000000000e+02,-1.594046935000000076e+02,-3.222500000000000000e+02
-1.701562500000000000e+02,-1.590531310000000076e+02,-3.235000000000000000e+02
-1.701562500000000000e+02,-1.594046935000000076e+02,-3.197500000000000000e+02
-1.701562500000000000e+02,-1.583500060000000076e+02,-3.235000000000000000e+02
-1.701562500000000000e+02,-1.576468810000000076e+02,-3.235000000000000000e+02
-1.701562500000000000e+02,-1.572953185000000076e+02,-3.272500000000000000e+02
-1.701562500000000000e+02,-1.569437560000000076e+02,-3.285000000000000000e+02
-1.701562500000000000e+02,-1.569437560000000076e+02,-3.260000000000000000e+02
-1.701562500000000000e+02,-1.569437560000000076e+02,-3.235000000000000000e+02
-1.701562500000000000e+02,-1.565921935000000076e+02,-3.297500000000000000e+02
-1.701562500000000000e+02,-1.565921935000000076e+02,-3.322500000000000000e+02
-1.701562500000000000e+02,-1.565921935000000076e+02,-3.247500000000000000e+02
-1.698046875000000000e+02,-1.681937560000000076e+02,-3.247500000000000000e+02
-1.694531250000000000e+02,-1.681937560000000076e+02,-3.260000000000000000e+02
-1.694531250000000000e+02,-1.685453185000000076e+02,-3.247500000000000000e+02
-1.694531250000000000e+02,-1.681937560000000076e+02,-3.235000000000000000e+02
-1.694531250000000000e+02,-1.674906310000000076e+02,-3.260000000000000000e+02
-1.694531250000000000e+02,-1.674906310000000076e+02,-3.235000000000000000e+02
-1.694531250000000000e+02,-1.667875060000000076e+02,-3.310000000000000000e+02
-1.694531250000000000e+02,-1.671390685000000076e+02,-3.297500000000000000e+02
-1.694531250000000000e+02,-1.671390685000000076e+02,-3.272500000000000000e+02
-1.694531250000000000e+02,-1.671390685000000076e+02,-3.222500000000000000e+02
-1.694531250000000000e+02,-1.667875060000000076e+02,-3.210000000000000000e+02
-1.694531250000000000e+02,-1.660843810000000076e+02,-3.310000000000000000e+02
-1.694531250000000000e+02,-1.660843810000000076e+02,-3.210000000000000000e+02
-1.694531250000000000e+02,-1.653812560000000076e+02,-3.310000000000000000e+02
-1.694531250000000000e+02,-1.653812560000000076e+02,-3.210000000000000000e+02
-1.694531250000000000e+02,-1.646781310000000076e+02,-3.310000000000000000e+02
-1.694531250000000000e+02,-1.650296935000000076e+02,-3.197500000000000000e+02
-1.694531250000000000e+02,-1.646781310000000076e+02,-3.185000000000000000e+02
-1.694531250000000000e+02,-1.639750060000000076e+02,-3.310000000000000000e+02
-1.694531250000000000e+02,-1.639750060000000076e+02,-3.185000000000000000e+02
-1.694531250000000000e+02,-1.636234435000000076e+02,-3.322500000000000000e+02
-1.694531250000000000e+02,-1.636234435000000076e+02,-3.172500000000000000e+02
-1.694531250000000000e+02,-1.608109435000000076e+02,-3.172500000000000000e+02
-1.694531250000000000e+02,-1.604593810000000076e+02,-3.185000000000000000e+02
-1.694531250000000000e+02,-1.597562560000000076e+02,-3.185000000000000000e+02
-1.694531250000000000e+02,-1.594046935000000076e+02,-3.222500000000000000e+02
-1.694531250000000000e+02,-1.590531310000000076e+02,-3.235000000000000000e+02
-1.694531250000000000e+02,-1.594046935000000076e+02,-3.197500000000000000e+02
-1.694531250000000000e+02,-1.583500060000000076e+02,-3.235000000000000000e+02
-1.694531250000000000e+02,-1.576468810000000076e+02,-3.235000000000000000e+02
-1.698046875000000000e+02,-1.569437560000000076e+02,-3.272500000000000000e+02
-1.694531250000000000e+02,-1.569437560000000076e+02,-3.235000000000000000e+02
-1.694531250000000000e+02,-1.565921935000000076e+02,-3.297500000000000000e+02
-1.694531250000000000e+02,-1.565921935000000076e+02,-3.322500000000000000e+02
-1.694531250000000000e+02,-1.565921935000000076e+02,-3.272500000000000000e+02
-1.694531250000000000e+02,-1.565921935000000076e+02,-3.247500000000000000e+02
-1.687500000000000000e+02,-1.681937560000000076e+02,-3.260000000000000000e+02
-1.687500000000000000e+02,-1.685453185000000076e+02,-3.247500000000000000e+02
-1.687500000000000000e+02,-1.681937560000000076e+02,-3.235000000000000000e+02
-1.687500000000000000e+02,-1.674906310000000076e+02,-3.260000000000000000e+02
-1.687500000000000000e+02,-1.678421935000000076e+02,-3.222500000000000000e+02
-1.691015625000000000e+02,-1.674906310000000076e+02,-3.222500000000000000e+02
-1.687500000000000000e+02,-1.674906310000000076e+02,-3.210000000000000000e+02
-1.687500000000000000e+02,-1.667875060000000076e+02,-3.310000000000000000e+02
-1.687500000000000000e+02,-1.671390685000000076e+02,-3.297500000000000000e+02
-1.687500000000000000e+02,-1.671390685000000076e+02,-3.272500000000000000e+02
-1.687500000000000000e+02,-1.667875060000000076e+02,-3.210000000000000000e+02
-1.687500000000000000e+02,-1.660843810000000076e+02,-3.310000000000000000e+02
-1.687500000000000000e+02,-1.660843810000000076e+02,-3.210000000000000000e+02
-1.687500000000000000e+02,-1.653812560000000076e+02,-3.310000000000000000e+02
-1.687500000000000000e+02,-1.657328185000000076e+02,-3.197500000000000000e+02
-1.691015625000000000e+02,-1.653812560000000076e+02,-3.197500000000000000e+02
-1.687500000000000000e+02,-1.653812560000000076e+02,-3.185000000000000000e+02
-1.687500000000000000e+02,-1.646781310000000076e+02,-3.310000000000000000e+02
-1.687500000000000000e+02,-1.646781310000000076e+02,-3.185000000000000000e+02
-1.687500000000000000e+02,-1.639750060000000076e+02,-3.310000000000000000e+02
-1.687500000000000000e+02,-1.643265685000000076e+02,-3.172500000000000000e+02
-1.691015625000000000e+02,-1.639750060000000076e+02,-3.172500000000000000e+02
-1.687500000000000000e+02,-1.636234435000000076e+02,-3.322500000000000000e+02
-1.691015625000000000e+02,-1.604593810000000076e+02,-3.172500000000000000e+02
-1.687500000000000000e+02,-1.601078185000000076e+02,-3.172500000000000000e+02
-1.687500000000000000e+02,-1.597562560000000076e+02,-3.185000000000000000e+02
-1.687500000000000000e+02,-1.594046935000000076e+02,-3.222500000000000000e+02
-1.687500000000000000e+02,-1.590531310000000076e+02,-3.235000000000000000e+02
-1.687500000000000000e+02,-1.594046935000000076e+02,-3.197500000000000000e+02
-1.687500000000000000e+02,-1.583500060000000076e+02,-3.235000000000000000e+02
-1.687500000000000000e+02,-1.576468810000000076e+02,-3.235000000000000000e+02
-1.687500000000000000e+02,-1.569437560000000076e+02,-3.235000000000000000e+02
-1.687500000000000000e+02,-1.565921935000000076e+02,-3.297500000000000000e+02
-1.687500000000000000e+02,-1.565921935000000076e+02,-3.322500000000000000e+02
-1.687500000000000000e+02,-1.565921935000000076e+02,-3.272500000000000000e+02
-1.687500000000000000e+02,-1.565921935000000076e+02,-3.247500000000000000e+02
-1.683984375000000000e+02,-1.688968810000000076e+02,-3.247500000000000000e+02
-1.680468750000000000e+02,-1.688968810000000076e+02,-3.260000000000000000e+02
-1.680468750000000000e+02,-1.692484435000000076e+02,-3.247500000000000000e+02
-1.680468750000000000e+02,-1.688968810000000076e+02,-3.235000000000000000e+02
-1.680468750000000000e+02,-1.681937560000000076e+02,-3.260000000000000000e+02
-1.680468750000000000e+02,-1.681937560000000076e+02,-3.235000000000000000e+02
-1.680468750000000000e+02,-1.674906310000000076e+02,-3.260000000000000000e+02
-1.680468750000000000e+02,-1.678421935000000076e+02,-3.222500000000000000e+02
-1.680468750000000000e+02,-1.674906310000000076e+02,-3.210000000000000000e+02
-1.680468750000000000e+02,-1.667875060000000076e+02,-3.310000000000000000e+02
-1.680468750000000000e+02,-1.671390685000000076e+02,-3.297500000000000000e+02
-1.680468750000000000e+02,-1.671390685000000076e+02,-3.272500000000000000e+02
-1.680468750000000000e+02,-1.667875060000000076e+02,-3.210000000000000000e+02
-1.680468750000000000e+02,-1.660843810000000076e+02,-3.310000000000000000e+02
-1.680468750000000000e+02,-1.664359435000000076e+02,-3.197500000000000000e+02
-1.683984375000000000e+02,-1.660843810000000076e+02,-3.197500000000000000e+02
-1.680468750000000000e+02,-1.660843810000000076e+02,-3.185000000000000000e+02
-1.680468750000000000e+02,-1.653812560000000076e+02,-3.310000000000000000e+02
-1.680468750000000000e+02,-1.653812560000000076e+02,-3.185000000000000000e+02
-1.680468750000000000e+02,-1.646781310000000076e+02,-3.310000000000000000e+02
-1.680468750000000000e+02,-1.646781310000000076e+02,-3.185000000000000000e+02
-1.683984375000000000e+02,-1.639750060000000076e+02,-3.322500000000000000e+02
-1.680468750000000000e+02,-1.643265685000000076e+02,-3.322500000000000000e+02
-1.680468750000000000e+02,-1.643265685000000076e+02,-3.172500000000000000e+02
-1.680468750000000000e+02,-1.601078185000000076e+02,-3.172500000000000000e+02
-1.680468750000000000e+02,-1.597562560000000076e+02,-3.185000000000000000e+02
-1.680468750000000000e+02,-1.594046935000000076e+02,-3.222500000000000000e+02
-1.680468750000000000e+02,-1.590531310000000076e+02,-3.235000000000000000e+02
-1.680468750000000000e+02,-1.594046935000000076e+02,-3.197500000000000000e+02
-1.680468750000000000e+02,-1.583500060000000076e+02,-3.235000000000000000e+02
-1.680468750000000000e+02,-1.576468810000000076e+02,-3.235000000000000000e+02
-1.680468750000000000e+02,-1.569437560000000076e+02,-3.235000000000000000e+02
-1.680468750000000000e+02,-1.565921935000000076e+02,-3.297500000000000000e+02
-1.680468750000000000e+02,-1.565921935000000076e+02,-3.322500000000000000e+02
-1.680468750000000000e+02,-1.565921935000000076e+02,-3.272500000000000000e+02
-1.680468750000000000e+02,-1.565921935000000076e+02,-3.247500000000000000e+02
-1.673437500000000000e+02,-1.688968810000000076e+02,-3.260000000000000000e+02
-1.673437500000000000e+02,-1.692484435000000076e+02,-3.247500000000000000e+02
-1.673437500000000000e+02,-1.688968810000000076e+02,-3.235000000000000000e+02
-1.673437500000000000e+02,-1.681937560000000076e+02,-3.260000000000000000e+02
-1.673437500000000000e+02,-1.681937560000000076e+02,-3.235000000000000000e+02
-1.673437500000000000e+02,-1.674906310000000076e+02,-3.260000000000000000e+02
-1.673437500000000000e+02,-1.678421935000000076e+02,-3.222500000000000000e+02
-1.673437500000000000e+02,-1.674906310000000076e+02,-3.210000000000000000e+02
-1.673437500000000000e+02,-1.667875060000000076e+02,-3.310000000000000000e+02
-1.673437500000000000e+02,-1.671390685000000076e+02,-3.297500000000000000e+02
-1.673437500000000000e+02,-1.671390685000000076e+02,-3.272500000000000000e+02
-1.673437500000000000e+02,-1.667875060000000076e+02,-3.210000000000000000e+02
-1.673437500000000000e+02,-1.660843810000000076e+02,-3.310000000000000000e+02
-1.673437500000000000e+02,-1.664359435000000076e+02,-3.197500000000000000e+02
-1.673437500000000000e+02,-1.660843810000000076e+02,-3.185000000000000000e+02
-1.673437500000000000e+02,-1.653812560000000076e+02,-3.310000000000000000e+02
-1.673437500000000000e+02,-1.653812560000000076e+02,-3.185000000000000000e+02
-1.673437500000000000e+02,-1.646781310000000076e+02,-3.310000000000000000e+02
-1.673437500000000000e+02,-1.646781310000000076e+02,-3.185000000000000000e+02
-1.673437500000000000e+02,-1.643265685000000076e+02,-3.322500000000000000e+02
-1.673437500000000000e+02,-1.643265685000000076e+02,-3.172500000000000000e+02
-1.673437500000000000e+02,-1.601078185000000076e+02,-3.172500000000000000e+02
-1.673437500000000000e+02,-1.597562560000000076e+02,-3.185000000000000000e+02
-1.673437500000000000e+02,-1.594046935000000076e+02,-3.222500000000000000e+02
-1.673437500000000000e+02,-1.590531310000000076e+02,-3.235000000000000000e+02
-1.673437500000000000e+02,-1.594046935000000076e+02,-3.197500000000000000e+02
-1.673437500000000000e+02,-1.583500060000000076e+02,-3.235000000000000000e+02
-1.673437500000000000e+02,-1.576468810000000076e+02,-3.235000000000000000e+02
-1.676953125000000000e+02,-1.569437560000000076e+02,-3.272500000000000000e+02
-1.673437500000000000e+02,-1.572953185000000076e+02,-3.272500000000000000e+02
-1.673437500000000000e+02,-1.569437560000000076e+02,-3.285000000000000000e+02
-1.673437500000000000e+02,-1.569437560000000076e+02,-3.260000000000000000e+02
-1.673437500000000000e+02,-1.569437560000000076e+02,-3.235000000000000000e+02
-1.673437500000000000e+02,-1.565921935000000076e+02,-3.297500000000000000e+02
-1.673437500000000000e+02,-1.565921935000000076e+02,-3.322500000000000000e+02
-1.673437500000000000e+02,-1.565921935000000076e+02,-3.247500000000000000e+02
-1.666406250000000000e+02,-1.688968810000000076e+02,-3.260000000000000000e+02
-1.666406250000000000e+02,-1.692484435000000076e+02,-3.247500000000000000e+02
-1.666406250000000000e+02,-1.688968810000000076e+02,-3.235000000000000000e+02
-1.666406250000000000e+02,-1.681937560000000076e+02,-3.260000000000000000e+02
-1.666406250000000000e+02,-1.681937560000000076e+02,-3.235000000000000000e+02
-1.666406250000000000e+02,-1.674906310000000076e+02,-3.260000000000000000e+02
-1.666406250000000000e+02,-1.678421935000000076e+02,-3.222500000000000000e+02
-1.666406250000000000e+02,-1.674906310000000076e+02,-3.210000000000000000e+02
-1.666406250000000000e+02,-1.667875060000000076e+02,-3.310000000000000000e+02
-1.666406250000000000e+02,-1.671390685000000076e+02,-3.297500000000000000e+02
-1.666406250000000000e+02,-1.671390685000000076e+02,-3.272500000000000000e+02
-1.666406250000000000e+02,-1.667875060000000076e+02,-3.210000000000000000e+02
-1.666406250000000000e+02,-1.660843810000000076e+02,-3.310000000000000000e+02
-1.666406250000000000e+02,-1.664359435000000076e+02,-3.197500000000000000e+02
-1.666406250000000000e+02,-1.660843810000000076e+02,-3.185000000000000000e+02
-1.666406250000000000e+02,-1.653812560000000076e+02,-3.310000000000000000e+02
-1.666406250000000000e+02,-1.653812560000000076e+02,-3.185000000000000000e+02
-1.666406250000000000e+02,-1.646781310000000076e+02,-3.310000000000000000e+02
-1.666406250000000000e+02,-1.646781310000000076e+02,-3.185000000000000000e+02
-1.666406250000000000e+02,-1.643265685000000076e+02,-3.322500000000000000e+02
-1.666406250000000000e+02,-1.643265685000000076e+02,-3.172500000000000000e+02
-1.666406250000000000e+02,-1.601078185000000076e+02,-3.172500000000000000e+02
-1.666406250000000000e+02,-1.597562560000000076e+02,-3.185000000000000000e+02
-1.666406250000000000e+02,-1.594046935000000076e+02,-3.222500000000000000e+02
-1.666406250000000000e+02,-1.590531310000000076e+02,-3.235000000000000000e+02
-1.666406250000000000e+02,-1.594046935000000076e+02,-3.197500000000000000e+02
-1.666406250000000000e+02,-1.583500060000000076e+02,-3.235000000000000000e+02
-1.666406250000000000e+02,-1.576468810000000076e+02,-3.235000000000000000e+02
-1.666406250000000000e+02,-1.572953185000000076e+02,-3.272500000000000000e+02
-1.666406250000000000e+02,-1.569437560000000076e+02,-3.285000000000000000e+02
-1.666406250000000000e+02,-1.569437560000000076e+02,-3.260000000000000000e+02
-1.666406250000000000e+02,-1.569437560000000076e+02,-3.235000000000000000e+02
-1.666406250000000000e+02,-1.565921935000000076e+02,-3.297500000000000000e+02
-1.666406250000000000e+02,-1.565921935000000076e+02,-3.322500000000000000e+02
-1.666406250000000000e+02,-1.565921935000000076e+02,-3.247500000000000000e+02
-1.662890625000000000e+02,-1.688968810000000076e+02,-3.247500000000000000e+02
-1.662890625000000000e+02,-1.681937560000000076e+02,-3.247500000000000000e+02
-1.659375000000000000e+02,-1.674906310000000076e+02,-3.260000000000000000e+02
-1.659375000000000000e+02,-1.678421935000000076e+02,-3.247500000000000000e+02
-1.659375000000000000e+02,-1.678421935000000076e+02,-3.222500000000000000e+02
-1.659375000000000000e+02,-1.674906310000000076e+02,-3.210000000000000000e+02
-1.659375000000000000e+02,-1.667875060000000076e+02,-3.310000000000000000e+02
-1.659375000000000000e+02,-1.671390685000000076e+02,-3.297500000000000000e+02
-1.659375000000000000e+02,-1.671390685000000076e+02,-3.272500000000000000e+02
-1.659375000000000000e+02,-1.667875060000000076e+02,-3.210000000000000000e+02
-1.659375000000000000e+02,-1.660843810000000076e+02,-3.310000000000000000e+02
-1.659375000000000000e+02,-1.664359435000000076e+02,-3.197500000000000000e+02
-1.659375000000000000e+02,-1.660843810000000076e+02,-3.185000000000000000e+02
-1.659375000000000000e+02,-1.653812560000000076e+02,-3.310000000000000000e+02
-1.659375000000000000e+02,-1.653812560000000076e+02,-3.185000000000000000e+02
-1.659375000000000000e+02,-1.646781310000000076e+02,-3.310000000000000000e+02
-1.659375000000000000e+02,-1.650296935000000076e+02,-3.172500000000000000e+02
-1.662890625000000000e+02,-1.646781310000000076e+02,-3.172500000000000000e+02
-1.659375000000000000e+02,-1.643265685000000076e+02,-3.322500000000000000e+02
-1.659375000000000000e+02,-1.601078185000000076e+02,-3.172500000000000000e+02
-1.659375000000000000e+02,-1.597562560000000076e+02,-3.185000000000000000e+02
-1.659375000000000000e+02,-1.594046935000000076e+02,-3.222500000000000000e+02
-1.659375000000000000e+02,-1.590531310000000076e+02,-3.235000000000000000e+02
-1.659375000000000000e+02,-1.594046935000000076e+02,-3.197500000000000000e+02
-1.659375000000000000e+02,-1.583500060000000076e+02,-3.235000000000000000e+02
-1.659375000000000000e+02,-1.576468810000000076e+02,-3.235000000000000000e+02
-1.659375000000000000e+02,-1.572953185000000076e+02,-3.272500000000000000e+02
-1.659375000000000000e+02,-1.569437560000000076e+02,-3.285000000000000000e+02
-1.662890625000000000e+02,-1.569437560000000076e+02,-3.247500000000000000e+02
-1.659375000000000000e+02,-1.572953185000000076e+02,-3.247500000000000000e+02
-1.659375000000000000e+02,-1.565921935000000076e+02,-3.297500000000000000e+02
-1.659375000000000000e+02,-1.565921935000000076e+02,-3.322500000000000000e+02
-1.652343750000000000e+02,-1.674906310000000076e+02,-3.260000000000000000e+02
-1.652343750000000000e+02,-1.678421935000000076e+02,-3.247500000000000000e+02
-1.652343750000000000e+02,-1.678421935000000076e+02,-3.222500000000000000e+02
-1.652343750000000000e+02,-1.674906310000000076e+02,-3.210000000000000000e+02
-1.652343750000000000e+02,-1.667875060000000076e+02,-3.310000000000000000e+02
-1.652343750000000000e+02,-1.671390685000000076e+02,-3.297500000000000000e+02
-1.652343750000000000e+02,-1.671390685000000076e+02,-3.272500000000000000e+02
-1.652343750000000000e+02,-1.667875060000000076e+02,-3.210000000000000000e+02
-1.652343750000000000e+02,-1.660843810000000076e+02,-3.310000000000000000e+02
-1.652343750000000000e+02,-1.664359435000000076e+02,-3.197500000000000000e+02
-1.652343750000000000e+02,-1.660843810000000076e+02,-3.185000000000000000e+02
-1.652343750000000000e+02,-1.653812560000000076e+02,-3.310000000000000000e+02
-1.652343750000000000e+02,-1.653812560000000076e+02,-3.185000000000000000e+02
-1.652343750000000000e+02,-1.646781310000000076e+02,-3.310000000000000000e+02
-1.652343750000000000e+02,-1.650296935000000076e+02,-3.172500000000000000e+02
-1.652343750000000000e+02,-1.643265685000000076e+02,-3.322500000000000000e+02
-1.652343750000000000e+02,-1.601078185000000076e+02,-3.172500000000000000e+02
-1.652343750000000000e+02,-1.597562560000000076e+02,-3.185000000000000000e+02
-1.652343750000000000e+02,-1.594046935000000076e+02,-3.222500000000000000e+02
-1.652343750000000000e+02,-1.590531310000000076e+02,-3.235000000000000000e+02
-1.652343750000000000e+02,-1.594046935000000076e+02,-3.197500000000000000e+02
-1.652343750000000000e+02,-1.583500060000000076e+02,-3.235000000000000000e+02
-1.652343750000000000e+02,-1.576468810000000076e+02,-3.235000000000000000e+02
-1.652343750000000000e+02,-1.572953185000000076e+02,-3.272500000000000000e+02
-1.652343750000000000e+02,-1.569437560000000076e+02,-3.285000000000000000e+02
-1.652343750000000000e+02,-1.572953185000000076e+02,-3.247500000000000000e+02
-1.652343750000000000e+02,-1.565921935000000076e+02,-3.297500000000000000e+02
-1.652343750000000000e+02,-1.565921935000000076e+02,-3.322500000000000000e+02
-1.645312500000000000e+02,-1.674906310000000076e+02,-3.260000000000000000e+02
-1.645312500000000000e+02,-1.678421935000000076e+02,-3.247500000000000000e+02
-1.645312500000000000e+02,-1.678421935000000076e+02,-3.222500000000000000e+02
-1.645312500000000000e+02,-1.674906310000000076e+02,-3.210000000000000000e+02
-1.645312500000000000e+02,-1.667875060000000076e+02,-3.310000000000000000e+02
-1.645312500000000000e+02,-1.671390685000000076e+02,-3.297500000000000000e+02
-1.645312500000000000e+02,-1.671390685000000076e+02,-3.272500000000000000e+02
-1.645312500000000000e+02,-1.667875060000000076e+02,-3.210000000000000000e+02
-1.645312500000000000e+02,-1.660843810000000076e+02,-3.310000000000000000e+02
-1.645312500000000000e+02,-1.664359435000000076e+02,-3.197500000000000000e+02
-1.645312500000000000e+02,-1.660843810000000076e+02,-3.185000000000000000e+02
-1.645312500000000000e+02,-1.653812560000000076e+02,-3.310000000000000000e+02
-1.645312500000000000e+02,-1.653812560000000076e+02,-3.185000000000000000e+02
-1.645312500000000000e+02,-1.646781310000000076e+02,-3.310000000000000000e+02
-1.645312500000000000e+02,-1.650296935000000076e+02,-3.172500000000000000e+02
-1.645312500000000000e+02,-1.643265685000000076e+02,-3.322500000000000000e+02
-1.645312500000000000e+02,-1.601078185000000076e+02,-3.172500000000000000e+02
-1.645312500000000000e+02,-1.597562560000000076e+02,-3.185000000000000000e+02
-1.645312500000000000e+02,-1.594046935000000076e+02,-3.222500000000000000e+02
-1.645312500000000000e+02,-1.590531310000000076e+02,-3.235000000000000000e+02
-1.645312500000000000e+02,-1.594046935000000076e+02,-3.197500000000000000e+02
-1.645312500000000000e+02,-1.583500060000000076e+02,-3.235000000000000000e+02
