-1.789453125000000000e+02,-1.543874969999999962e+02,-3.617500000000000000e+02
-1.785937500000000000e+02,-1.543874969999999962e+02,-3.623750000000000000e+02
-1.785937500000000000e+02,-1.547390594999999962e+02,-3.617500000000000000e+02
-1.785937500000000000e+02,-1.543874969999999962e+02,-3.611250000000000000e+02
-1.789453125000000000e+02,-1.536843719999999962e+02,-3.642500000000000000e+02
-1.785937500000000000e+02,-1.536843719999999962e+02,-3.648750000000000000e+02
-1.785937500000000000e+02,-1.540359344999999962e+02,-3.642500000000000000e+02
-1.785937500000000000e+02,-1.536843719999999962e+02,-3.636250000000000000e+02
-1.789453125000000000e+02,-1.536843719999999962e+02,-3.617500000000000000e+02
-1.785937500000000000e+02,-1.536843719999999962e+02,-3.623750000000000000e+02
-1.785937500000000000e+02,-1.536843719999999962e+02,-3.611250000000000000e+02
-1.789453125000000000e+02,-1.529812469999999962e+02,-3.642500000000000000e+02
-1.785937500000000000e+02,-1.529812469999999962e+02,-3.648750000000000000e+02
-1.785937500000000000e+02,-1.529812469999999962e+02,-3.636250000000000000e+02
-1.789453125000000000e+02,-1.529812469999999962e+02,-3.617500000000000000e+02
-1.785937500000000000e+02,-1.529812469999999962e+02,-3.623750000000000000e+02
-1.785937500000000000e+02,-1.529812469999999962e+02,-3.611250000000000000e+02
-1.789453125000000000e+02,-1.522781219999999962e+02,-3.655000000000000000e+02
-1.785937500000000000e+02,-1.522781219999999962e+02,-3.661250000000000000e+02
-1.785937500000000000e+02,-1.526296844999999962e+02,-3.655000000000000000e+02
-1.789453125000000000e+02,-1.522781219999999962e+02,-3.642500000000000000e+02
-1.785937500000000000e+02,-1.522781219999999962e+02,-3.636250000000000000e+02
-1.789453125000000000e+02,-1.522781219999999962e+02,-3.617500000000000000e+02
-1.785937500000000000e+02,-1.522781219999999962e+02,-3.623750000000000000e+02
-1.785937500000000000e+02,-1.522781219999999962e+02,-3.611250000000000000e+02
-1.785937500000000000e+02,-1.519265594999999962e+02,-3.655000000000000000e+02
-1.785937500000000000e+02,-1.519265594999999962e+02,-3.642500000000000000e+02
-1.789453125000000000e+02,-1.515749969999999962e+02,-3.617500000000000000e+02
-1.785937500000000000e+02,-1.515749969999999962e+02,-3.623750000000000000e+02
-1.785937500000000000e+02,-1.515749969999999962e+02,-3.611250000000000000e+02
-1.789453125000000000e+02,-1.508718719999999962e+02,-3.617500000000000000e+02
-1.785937500000000000e+02,-1.508718719999999962e+02,-3.623750000000000000e+02
-1.785937500000000000e+02,-1.508718719999999962e+02,-3.611250000000000000e+02
-1.789453125000000000e+02,-1.501687469999999962e+02,-3.617500000000000000e+02
-1.785937500000000000e+02,-1.501687469999999962e+02,-3.623750000000000000e+02
-1.785937500000000000e+02,-1.501687469999999962e+02,-3.611250000000000000e+02
-1.785937500000000000e+02,-1.498171844999999962e+02,-3.617500000000000000e+02
-1.782421875000000000e+02,-1.564968719999999962e+02,-3.630000000000000000e+02
-1.778906250000000000e+02,-1.564968719999999962e+02,-3.636250000000000000e+02
-1.778906250000000000e+02,-1.568484344999999962e+02,-3.630000000000000000e+02
-1.778906250000000000e+02,-1.564968719999999962e+02,-3.623750000000000000e+02
-1.782421875000000000e+02,-1.557937469999999962e+02,-3.642500000000000000e+02
-1.778906250000000000e+02,-1.557937469999999962e+02,-3.648750000000000000e+02
-1.778906250000000000e+02,-1.561453094999999962e+02,-3.642500000000000000e+02
-1.782421875000000000e+02,-1.557937469999999962e+02,-3.630000000000000000e+02
-1.778906250000000000e+02,-1.561453094999999962e+02,-3.617500000000000000e+02
-1.782421875000000000e+02,-1.557937469999999962e+02,-3.617500000000000000e+02
-1.778906250000000000e+02,-1.557937469999999962e+02,-3.611250000000000000e+02
-1.782421875000000000e+02,-1.550906219999999962e+02,-3.667500000000000000e+02
-1.778906250000000000e+02,-1.554421844999999962e+02,-3.655000000000000000e+02
-1.782421875000000000e+02,-1.550906219999999962e+02,-3.655000000000000000e+02
-1.778906250000000000e+02,-1.554421844999999962e+02,-3.667500000000000000e+02
-1.782421875000000000e+02,-1.550906219999999962e+02,-3.642500000000000000e+02
-1.782421875000000000e+02,-1.550906219999999962e+02,-3.630000000000000000e+02
-1.782421875000000000e+02,-1.550906219999999962e+02,-3.617500000000000000e+02
-1.778906250000000000e+02,-1.550906219999999962e+02,-3.611250000000000000e+02
-1.782421875000000000e+02,-1.543874969999999962e+02,-3.655000000000000000e+02
-1.782421875000000000e+02,-1.543874969999999962e+02,-3.667500000000000000e+02
-1.782421875000000000e+02,-1.543874969999999962e+02,-3.642500000000000000e+02
-1.782421875000000000e+02,-1.543874969999999962e+02,-3.630000000000000000e+02
-1.778906250000000000e+02,-1.543874969999999962e+02,-3.611250000000000000e+02
-1.782421875000000000e+02,-1.536843719999999962e+02,-3.655000000000000000e+02
-1.782421875000000000e+02,-1.536843719999999962e+02,-3.667500000000000000e+02
-1.782421875000000000e+02,-1.536843719999999962e+02,-3.630000000000000000e+02
-1.778906250000000000e+02,-1.536843719999999962e+02,-3.611250000000000000e+02
-1.778906250000000000e+02,-1.533328094999999962e+02,-3.667500000000000000e+02
-1.782421875000000000e+02,-1.529812469999999962e+02,-3.655000000000000000e+02
-1.778906250000000000e+02,-1.529812469999999962e+02,-3.661250000000000000e+02
-1.782421875000000000e+02,-1.529812469999999962e+02,-3.630000000000000000e+02
-1.778906250000000000e+02,-1.529812469999999962e+02,-3.611250000000000000e+02
-1.778906250000000000e+02,-1.522781219999999962e+02,-3.661250000000000000e+02
-1.782421875000000000e+02,-1.522781219999999962e+02,-3.630000000000000000e+02
-1.778906250000000000e+02,-1.526296844999999962e+02,-3.605000000000000000e+02
-1.782421875000000000e+02,-1.522781219999999962e+02,-3.605000000000000000e+02
-1.778906250000000000e+02,-1.519265594999999962e+02,-3.655000000000000000e+02
-1.782421875000000000e+02,-1.515749969999999962e+02,-3.642500000000000000e+02
-1.778906250000000000e+02,-1.515749969999999962e+02,-3.648750000000000000e+02
-1.782421875000000000e+02,-1.515749969999999962e+02,-3.630000000000000000e+02
-1.782421875000000000e+02,-1.515749969999999962e+02,-3.605000000000000000e+02
-1.782421875000000000e+02,-1.508718719999999962e+02,-3.642500000000000000e+02
-1.778906250000000000e+02,-1.508718719999999962e+02,-3.648750000000000000e+02
-1.782421875000000000e+02,-1.508718719999999962e+02,-3.630000000000000000e+02
-1.782421875000000000e+02,-1.508718719999999962e+02,-3.605000000000000000e+02
-1.778906250000000000e+02,-1.505203094999999962e+02,-3.642500000000000000e+02
-1.778906250000000000e+02,-1.505203094999999962e+02,-3.630000000000000000e+02
-1.778906250000000000e+02,-1.501687469999999962e+02,-3.623750000000000000e+02
-1.778906250000000000e+02,-1.505203094999999962e+02,-3.605000000000000000e+02
-1.778906250000000000e+02,-1.501687469999999962e+02,-3.611250000000000000e+02
-1.778906250000000000e+02,-1.498171844999999962e+02,-3.617500000000000000e+02
-1.775390625000000000e+02,-1.564968719999999962e+02,-3.630000000000000000e+02
-1.775390625000000000e+02,-1.557937469999999962e+02,-3.642500000000000000e+02
-1.771875000000000000e+02,-1.557937469999999962e+02,-3.636250000000000000e+02
-1.771875000000000000e+02,-1.561453094999999962e+02,-3.630000000000000000e+02
-1.771875000000000000e+02,-1.561453094999999962e+02,-3.617500000000000000e+02
-1.771875000000000000e+02,-1.557937469999999962e+02,-3.611250000000000000e+02
-1.771875000000000000e+02,-1.554421844999999962e+02,-3.655000000000000000e+02
-1.771875000000000000e+02,-1.554421844999999962e+02,-3.667500000000000000e+02
-1.771875000000000000e+02,-1.554421844999999962e+02,-3.642500000000000000e+02
-1.771875000000000000e+02,-1.550906219999999962e+02,-3.611250000000000000e+02
-1.771875000000000000e+02,-1.543874969999999962e+02,-3.611250000000000000e+02
-1.771875000000000000e+02,-1.540359344999999962e+02,-3.605000000000000000e+02
-1.775390625000000000e+02,-1.536843719999999962e+02,-3.605000000000000000e+02
-1.775390625000000000e+02,-1.529812469999999962e+02,-3.667500000000000000e+02
-1.775390625000000000e+02,-1.529812469999999962e+02,-3.605000000000000000e+02
-1.775390625000000000e+02,-1.522781219999999962e+02,-3.667500000000000000e+02
-1.775390625000000000e+02,-1.515749969999999962e+02,-3.655000000000000000e+02
-1.771875000000000000e+02,-1.515749969999999962e+02,-3.661250000000000000e+02
-1.771875000000000000e+02,-1.519265594999999962e+02,-3.667500000000000000e+02
-1.771875000000000000e+02,-1.512234344999999962e+02,-3.655000000000000000e+02
-1.771875000000000000e+02,-1.508718719999999962e+02,-3.648750000000000000e+02
-1.775390625000000000e+02,-1.501687469999999962e+02,-3.642500000000000000e+02
-1.771875000000000000e+02,-1.501687469999999962e+02,-3.648750000000000000e+02
-1.771875000000000000e+02,-1.501687469999999962e+02,-3.636250000000000000e+02
-1.771875000000000000e+02,-1.505203094999999962e+02,-3.630000000000000000e+02
-1.771875000000000000e+02,-1.501687469999999962e+02,-3.623750000000000000e+02
-1.771875000000000000e+02,-1.505203094999999962e+02,-3.605000000000000000e+02
-1.771875000000000000e+02,-1.501687469999999962e+02,-3.611250000000000000e+02
-1.771875000000000000e+02,-1.498171844999999962e+02,-3.642500000000000000e+02
-1.771875000000000000e+02,-1.498171844999999962e+02,-3.617500000000000000e+02
-1.768359375000000000e+02,-1.564968719999999962e+02,-3.617500000000000000e+02
-1.764843750000000000e+02,-1.564968719999999962e+02,-3.623750000000000000e+02
-1.764843750000000000e+02,-1.568484344999999962e+02,-3.617500000000000000e+02
-1.764843750000000000e+02,-1.564968719999999962e+02,-3.611250000000000000e+02
-1.764843750000000000e+02,-1.561453094999999962e+02,-3.667500000000000000e+02
-1.764843750000000000e+02,-1.557937469999999962e+02,-3.661250000000000000e+02
-1.768359375000000000e+02,-1.557937469999999962e+02,-3.667500000000000000e+02
-1.764843750000000000e+02,-1.557937469999999962e+02,-3.636250000000000000e+02
-1.764843750000000000e+02,-1.561453094999999962e+02,-3.630000000000000000e+02
-1.764843750000000000e+02,-1.557937469999999962e+02,-3.611250000000000000e+02
-1.764843750000000000e+02,-1.554421844999999962e+02,-3.655000000000000000e+02
-1.764843750000000000e+02,-1.554421844999999962e+02,-3.642500000000000000e+02
-1.764843750000000000e+02,-1.550906219999999962e+02,-3.611250000000000000e+02
-1.764843750000000000e+02,-1.543874969999999962e+02,-3.611250000000000000e+02
-1.764843750000000000e+02,-1.540359344999999962e+02,-3.605000000000000000e+02
-1.764843750000000000e+02,-1.519265594999999962e+02,-3.667500000000000000e+02
-1.764843750000000000e+02,-1.515749969999999962e+02,-3.661250000000000000e+02
-1.764843750000000000e+02,-1.512234344999999962e+02,-3.655000000000000000e+02
-1.764843750000000000e+02,-1.508718719999999962e+02,-3.648750000000000000e+02
-1.764843750000000000e+02,-1.501687469999999962e+02,-3.648750000000000000e+02
-1.768359375000000000e+02,-1.501687469999999962e+02,-3.630000000000000000e+02
-1.768359375000000000e+02,-1.501687469999999962e+02,-3.605000000000000000e+02
-1.764843750000000000e+02,-1.498171844999999962e+02,-3.642500000000000000e+02
-1.764843750000000000e+02,-1.498171844999999962e+02,-3.630000000000000000e+02
-1.768359375000000000e+02,-1.494656219999999962e+02,-3.617500000000000000e+02
-1.764843750000000000e+02,-1.494656219999999962e+02,-3.623750000000000000e+02
-1.764843750000000000e+02,-1.494656219999999962e+02,-3.611250000000000000e+02
-1.764843750000000000e+02,-1.498171844999999962e+02,-3.605000000000000000e+02
-1.764843750000000000e+02,-1.491140594999999962e+02,-3.617500000000000000e+02
-1.757812500000000000e+02,-1.564968719999999962e+02,-3.623750000000000000e+02
-1.757812500000000000e+02,-1.568484344999999962e+02,-3.617500000000000000e+02
-1.757812500000000000e+02,-1.564968719999999962e+02,-3.611250000000000000e+02
-1.761328125000000000e+02,-1.557937469999999962e+02,-3.667500000000000000e+02
-1.757812500000000000e+02,-1.557937469999999962e+02,-3.636250000000000000e+02
-1.757812500000000000e+02,-1.561453094999999962e+02,-3.630000000000000000e+02
-1.757812500000000000e+02,-1.557937469999999962e+02,-3.611250000000000000e+02
-1.761328125000000000e+02,-1.550906219999999962e+02,-3.655000000000000000e+02
-1.761328125000000000e+02,-1.550906219999999962e+02,-3.667500000000000000e+02
-1.757812500000000000e+02,-1.550906219999999962e+02,-3.648750000000000000e+02
-1.757812500000000000e+02,-1.554421844999999962e+02,-3.642500000000000000e+02
-1.757812500000000000e+02,-1.550906219999999962e+02,-3.611250000000000000e+02
-1.757812500000000000e+02,-1.547390594999999962e+02,-3.667500000000000000e+02
-1.757812500000000000e+02,-1.547390594999999962e+02,-3.655000000000000000e+02
-1.757812500000000000e+02,-1.547390594999999962e+02,-3.605000000000000000e+02
-1.761328125000000000e+02,-1.543874969999999962e+02,-3.605000000000000000e+02
-1.761328125000000000e+02,-1.515749969999999962e+02,-3.655000000000000000e+02
-1.757812500000000000e+02,-1.519265594999999962e+02,-3.655000000000000000e+02
-1.757812500000000000e+02,-1.519265594999999962e+02,-3.667500000000000000e+02
-1.757812500000000000e+02,-1.515749969999999962e+02,-3.648750000000000000e+02
-1.757812500000000000e+02,-1.508718719999999962e+02,-3.648750000000000000e+02
-1.757812500000000000e+02,-1.501687469999999962e+02,-3.648750000000000000e+02
-1.761328125000000000e+02,-1.501687469999999962e+02,-3.630000000000000000e+02
-1.757812500000000000e+02,-1.505203094999999962e+02,-3.630000000000000000e+02
-1.757812500000000000e+02,-1.501687469999999962e+02,-3.636250000000000000e+02
-1.757812500000000000e+02,-1.501687469999999962e+02,-3.623750000000000000e+02
-1.757812500000000000e+02,-1.498171844999999962e+02,-3.642500000000000000e+02
-1.761328125000000000e+02,-1.494656219999999962e+02,-3.617500000000000000e+02
-1.757812500000000000e+02,-1.498171844999999962e+02,-3.617500000000000000e+02
-1.757812500000000000e+02,-1.498171844999999962e+02,-3.605000000000000000e+02
-1.754296875000000000e+02,-1.564968719999999962e+02,-3.617500000000000000e+02
-1.750781250000000000e+02,-1.557937469999999962e+02,-3.636250000000000000e+02
-1.750781250000000000e+02,-1.561453094999999962e+02,-3.630000000000000000e+02
-1.750781250000000000e+02,-1.561453094999999962e+02,-3.617500000000000000e+02
-1.750781250000000000e+02,-1.557937469999999962e+02,-3.611250000000000000e+02
-1.750781250000000000e+02,-1.550906219999999962e+02,-3.648750000000000000e+02
-1.750781250000000000e+02,-1.554421844999999962e+02,-3.642500000000000000e+02
-1.750781250000000000e+02,-1.550906219999999962e+02,-3.611250000000000000e+02
-1.754296875000000000e+02,-1.543874969999999962e+02,-3.655000000000000000e+02
-1.754296875000000000e+02,-1.543874969999999962e+02,-3.667500000000000000e+02
-1.750781250000000000e+02,-1.543874969999999962e+02,-3.648750000000000000e+02
-1.754296875000000000e+02,-1.543874969999999962e+02,-3.605000000000000000e+02
-1.750781250000000000e+02,-1.543874969999999962e+02,-3.611250000000000000e+02
-1.754296875000000000e+02,-1.536843719999999962e+02,-3.655000000000000000e+02
-1.754296875000000000e+02,-1.536843719999999962e+02,-3.667500000000000000e+02
-1.750781250000000000e+02,-1.536843719999999962e+02,-3.648750000000000000e+02
-1.754296875000000000e+02,-1.536843719999999962e+02,-3.605000000000000000e+02
-1.750781250000000000e+02,-1.536843719999999962e+02,-3.611250000000000000e+02
-1.750781250000000000e+02,-1.529812469999999962e+02,-3.661250000000000000e+02
-1.750781250000000000e+02,-1.533328094999999962e+02,-3.655000000000000000e+02
-1.754296875000000000e+02,-1.529812469999999962e+02,-3.667500000000000000e+02
-1.750781250000000000e+02,-1.533328094999999962e+02,-3.605000000000000000e+02
-1.750781250000000000e+02,-1.522781219999999962e+02,-3.661250000000000000e+02
-1.754296875000000000e+02,-1.522781219999999962e+02,-3.667500000000000000e+02
-1.750781250000000000e+02,-1.519265594999999962e+02,-3.655000000000000000e+02
-1.750781250000000000e+02,-1.515749969999999962e+02,-3.648750000000000000e+02
-1.750781250000000000e+02,-1.508718719999999962e+02,-3.648750000000000000e+02
-1.750781250000000000e+02,-1.505203094999999962e+02,-3.642500000000000000e+02
-1.754296875000000000e+02,-1.501687469999999962e+02,-3.642500000000000000e+02
-1.750781250000000000e+02,-1.505203094999999962e+02,-3.630000000000000000e+02
-1.754296875000000000e+02,-1.501687469999999962e+02,-3.617500000000000000e+02
-1.750781250000000000e+02,-1.505203094999999962e+02,-3.617500000000000000e+02
-1.750781250000000000e+02,-1.501687469999999962e+02,-3.611250000000000000e+02
-1.750781250000000000e+02,-1.498171844999999962e+02,-3.605000000000000000e+02
-1.747265625000000000e+02,-1.557937469999999962e+02,-3.630000000000000000e+02
-1.747265625000000000e+02,-1.557937469999999962e+02,-3.617500000000000000e+02
-1.747265625000000000e+02,-1.550906219999999962e+02,-3.642500000000000000e+02
-1.743750000000000000e+02,-1.550906219999999962e+02,-3.636250000000000000e+02
-1.743750000000000000e+02,-1.554421844999999962e+02,-3.630000000000000000e+02
-1.743750000000000000e+02,-1.550906219999999962e+02,-3.623750000000000000e+02
-1.747265625000000000e+02,-1.550906219999999962e+02,-3.617500000000000000e+02
-1.747265625000000000e+02,-1.543874969999999962e+02,-3.642500000000000000e+02
-1.743750000000000000e+02,-1.543874969999999962e+02,-3.636250000000000000e+02
-1.743750000000000000e+02,-1.547390594999999962e+02,-3.617500000000000000e+02
-1.743750000000000000e+02,-1.543874969999999962e+02,-3.611250000000000000e+02
-1.743750000000000000e+02,-1.536843719999999962e+02,-3.648750000000000000e+02
-1.743750000000000000e+02,-1.540359344999999962e+02,-3.642500000000000000e+02
-1.743750000000000000e+02,-1.536843719999999962e+02,-3.611250000000000000e+02
-1.747265625000000000e+02,-1.529812469999999962e+02,-3.655000000000000000e+02
-1.743750000000000000e+02,-1.529812469999999962e+02,-3.648750000000000000e+02
-1.747265625000000000e+02,-1.529812469999999962e+02,-3.605000000000000000e+02
-1.743750000000000000e+02,-1.529812469999999962e+02,-3.611250000000000000e+02
-1.747265625000000000e+02,-1.522781219999999962e+02,-3.655000000000000000e+02
-1.743750000000000000e+02,-1.522781219999999962e+02,-3.648750000000000000e+02
-1.743750000000000000e+02,-1.526296844999999962e+02,-3.605000000000000000e+02
-1.743750000000000000e+02,-1.515749969999999962e+02,-3.648750000000000000e+02
-1.743750000000000000e+02,-1.512234344999999962e+02,-3.642500000000000000e+02
-1.747265625000000000e+02,-1.508718719999999962e+02,-3.642500000000000000e+02
-1.747265625000000000e+02,-1.508718719999999962e+02,-3.630000000000000000e+02
-1.743750000000000000e+02,-1.512234344999999962e+02,-3.630000000000000000e+02
-1.747265625000000000e+02,-1.508718719999999962e+02,-3.617500000000000000e+02
-1.743750000000000000e+02,-1.512234344999999962e+02,-3.617500000000000000e+02
-1.743750000000000000e+02,-1.508718719999999962e+02,-3.611250000000000000e+02
-1.743750000000000000e+02,-1.501687469999999962e+02,-3.611250000000000000e+02
-1.743750000000000000e+02,-1.498171844999999962e+02,-3.605000000000000000e+02
-1.736718750000000000e+02,-1.550906219999999962e+02,-3.636250000000000000e+02
-1.736718750000000000e+02,-1.554421844999999962e+02,-3.630000000000000000e+02
-1.736718750000000000e+02,-1.550906219999999962e+02,-3.623750000000000000e+02
-1.736718750000000000e+02,-1.543874969999999962e+02,-3.636250000000000000e+02
-1.740234375000000000e+02,-1.543874969999999962e+02,-3.617500000000000000e+02
-1.736718750000000000e+02,-1.543874969999999962e+02,-3.623750000000000000e+02
-1.740234375000000000e+02,-1.536843719999999962e+02,-3.642500000000000000e+02
-1.736718750000000000e+02,-1.536843719999999962e+02,-3.636250000000000000e+02
-1.740234375000000000e+02,-1.536843719999999962e+02,-3.617500000000000000e+02
-1.736718750000000000e+02,-1.536843719999999962e+02,-3.623750000000000000e+02
-1.740234375000000000e+02,-1.529812469999999962e+02,-3.642500000000000000e+02
-1.736718750000000000e+02,-1.529812469999999962e+02,-3.636250000000000000e+02
-1.740234375000000000e+02,-1.529812469999999962e+02,-3.617500000000000000e+02
-1.736718750000000000e+02,-1.529812469999999962e+02,-3.623750000000000000e+02
-1.740234375000000000e+02,-1.522781219999999962e+02,-3.642500000000000000e+02
-1.736718750000000000e+02,-1.522781219999999962e+02,-3.636250000000000000e+02
-1.740234375000000000e+02,-1.522781219999999962e+02,-3.617500000000000000e+02
-1.736718750000000000e+02,-1.522781219999999962e+02,-3.623750000000000000e+02
-1.740234375000000000e+02,-1.522781219999999962e+02,-3.605000000000000000e+02
-1.740234375000000000e+02,-1.515749969999999962e+02,-3.642500000000000000e+02
-1.736718750000000000e+02,-1.515749969999999962e+02,-3.636250000000000000e+02
-1.740234375000000000e+02,-1.515749969999999962e+02,-3.617500000000000000e+02
-1.736718750000000000e+02,-1.515749969999999962e+02,-3.623750000000000000e+02
-1.740234375000000000e+02,-1.515749969999999962e+02,-3.605000000000000000e+02
-1.736718750000000000e+02,-1.512234344999999962e+02,-3.630000000000000000e+02
-1.740234375000000000e+02,-1.508718719999999962e+02,-3.605000000000000000e+02
-1.740234375000000000e+02,-1.501687469999999962e+02,-3.605000000000000000e+02
-1.733203125000000000e+02,-1.550906219999999962e+02,-3.630000000000000000e+02
-1.733203125000000000e+02,-1.543874969999999962e+02,-3.630000000000000000e+02
-1.733203125000000000e+02,-1.536843719999999962e+02,-3.630000000000000000e+02
-1.733203125000000000e+02,-1.529812469999999962e+02,-3.630000000000000000e+02
-1.733203125000000000e+02,-1.522781219999999962e+02,-3.630000000000000000e+02
-1.733203125000000000e+02,-1.515749969999999962e+02,-3.630000000000000000e+02
