-1.246728937499999859e+02,1.465493416750000044e+01,7.798000490860214313e+02
-1.246728937499999859e+02,1.493716073000000044e+01,7.803000490878135906e+02
-1.249551203124999859e+02,1.493716073000000044e+01,7.818000490931899549e+02
-1.246728937499999859e+02,1.493716073000000044e+01,7.823000490949820005e+02
-1.246728937499999859e+02,1.465493416750000044e+01,7.828000490967741598e+02
-1.246728937499999859e+02,1.493716073000000044e+01,7.833000490985662054e+02
-1.246728937499999859e+02,1.521938729250000044e+01,7.618000490215052878e+02
-1.249551203124999859e+02,1.550161385500000044e+01,7.618000490215052878e+02
-1.246728937499999859e+02,1.550161385500000044e+01,7.623000490232974471e+02
-1.246728937499999859e+02,1.521938729250000044e+01,7.808000490896056363e+02
-1.246728937499999859e+02,1.521938729250000044e+01,7.818000490931899549e+02
-1.246728937499999859e+02,1.521938729250000044e+01,7.838000491003583647e+02
-1.249551203124999859e+02,1.550161385500000044e+01,7.838000491003583647e+02
-1.246728937499999859e+02,1.550161385500000044e+01,7.843000491021505240e+02
-1.246728937499999859e+02,1.606606698000000222e+01,7.623000490232974471e+02
-1.249551203124999859e+02,1.606606698000000222e+01,7.838000491003583647e+02
-1.246728937499999859e+02,1.606606698000000222e+01,7.843000491021505240e+02
-1.246728937499999859e+02,1.634829354250000222e+01,7.628000490250896064e+02
-1.249551203124999859e+02,1.663052010500000222e+01,7.628000490250896064e+02
-1.246728937499999859e+02,1.663052010500000222e+01,7.633000490268816520e+02
-1.246728937499999859e+02,1.663052010500000222e+01,7.843000491021505240e+02
-1.246728937499999859e+02,1.691274666750000222e+01,7.638000490286738113e+02
-1.246728937499999859e+02,1.691274666750000222e+01,7.648000490322580163e+02
-1.246728937499999859e+02,1.691274666750000222e+01,7.658000490358422212e+02
-1.246728937499999859e+02,1.691274666750000222e+01,7.668000490394264261e+02
-1.246728937499999859e+02,1.691274666750000222e+01,7.678000490430107448e+02
-1.246728937499999859e+02,1.719497323000000222e+01,7.683000490448027904e+02
-1.246728937499999859e+02,1.691274666750000222e+01,7.848000491039425697e+02
-1.246728937499999859e+02,1.719497323000000222e+01,7.853000491057347290e+02
-1.246728937499999859e+02,1.775942635500000222e+01,7.683000490448027904e+02
-1.246728937499999859e+02,1.775942635500000222e+01,7.853000491057347290e+02
-1.246728937499999859e+02,1.832387948000000222e+01,7.683000490448027904e+02
-1.246728937499999859e+02,1.804165291750000222e+01,7.858000491075268883e+02
-1.249551203124999859e+02,1.832387948000000222e+01,7.858000491075268883e+02
-1.246728937499999859e+02,1.832387948000000222e+01,7.863000491093189339e+02
-1.246728937499999859e+02,1.888833260500000222e+01,7.683000490448027904e+02
-1.249551203124999859e+02,1.888833260500000222e+01,7.738000490645160880e+02
-1.246728937499999859e+02,1.860610604250000222e+01,7.738000490645160880e+02
-1.246728937499999859e+02,1.888833260500000222e+01,7.733000490627239287e+02
-1.246728937499999859e+02,1.888833260500000222e+01,7.743000490663082473e+02
-1.246728937499999859e+02,1.860610604250000222e+01,7.868000491111110932e+02
-1.249551203124999859e+02,1.888833260500000222e+01,7.868000491111110932e+02
-1.246728937499999859e+02,1.888833260500000222e+01,7.873000491129031388e+02
-1.246728937499999859e+02,1.945278573000000222e+01,7.683000490448027904e+02
-1.246728937499999859e+02,1.945278573000000222e+01,7.733000490627239287e+02
-1.246728937499999859e+02,1.945278573000000222e+01,7.743000490663082473e+02
-1.246728937499999859e+02,1.945278573000000222e+01,7.873000491129031388e+02
-1.246728937499999859e+02,2.001723885500000222e+01,7.683000490448027904e+02
-1.246728937499999859e+02,2.001723885500000222e+01,7.733000490627239287e+02
-1.246728937499999859e+02,2.001723885500000222e+01,7.743000490663082473e+02
-1.246728937499999859e+02,2.001723885500000222e+01,7.873000491129031388e+02
-1.246728937499999859e+02,2.029946541750000222e+01,7.688000490465949497e+02
-1.246728937499999859e+02,2.029946541750000222e+01,7.698000490501791546e+02
-1.249551203124999859e+02,2.058169198000000222e+01,7.708000490537633596e+02
-1.246728937499999859e+02,2.029946541750000222e+01,7.708000490537633596e+02
-1.246728937499999859e+02,2.029946541750000222e+01,7.718000490573476782e+02
-1.249551203124999859e+02,2.058169198000000222e+01,7.728000490609318831e+02
-1.246728937499999859e+02,2.029946541750000222e+01,7.728000490609318831e+02
-1.246728937499999859e+02,2.029946541750000222e+01,7.748000490681002930e+02
-1.246728937499999859e+02,2.058169198000000222e+01,7.753000490698924523e+02
-1.246728937499999859e+02,2.058169198000000222e+01,7.873000491129031388e+02
-1.246728937499999859e+02,2.114614510500000222e+01,7.753000490698924523e+02
-1.246728937499999859e+02,2.086391854250000222e+01,7.878000491146952982e+02
-1.246728937499999859e+02,2.114614510500000222e+01,7.883000491164874575e+02
-1.246728937499999859e+02,2.142837166750000222e+01,7.758000490716844979e+02
-1.249551203124999859e+02,2.171059823000000222e+01,7.758000490716844979e+02
-1.246728937499999859e+02,2.171059823000000222e+01,7.763000490734766572e+02
-1.246728937499999859e+02,2.171059823000000222e+01,7.883000491164874575e+02
-1.246728937499999859e+02,2.227505135500000222e+01,7.763000490734766572e+02
-1.246728937499999859e+02,2.227505135500000222e+01,7.883000491164874575e+02
-1.246728937499999859e+02,2.283950448000000222e+01,7.763000490734766572e+02
-1.249551203124999859e+02,2.283950448000000222e+01,7.808000490896056363e+02
-1.246728937499999859e+02,2.255727791750000222e+01,7.808000490896056363e+02
-1.246728937499999859e+02,2.283950448000000222e+01,7.803000490878135906e+02
-1.246728937499999859e+02,2.283950448000000222e+01,7.813000490913977956e+02
-1.246728937499999859e+02,2.283950448000000222e+01,7.883000491164874575e+02
-1.246728937499999859e+02,2.312173104250000222e+01,7.768000490752688165e+02
-1.249551203124999859e+02,2.340395760500000222e+01,7.768000490752688165e+02
-1.249551203124999859e+02,2.340395760500000222e+01,7.778000490788530215e+02
-1.246728937499999859e+02,2.312173104250000222e+01,7.778000490788530215e+02
-1.249551203124999859e+02,2.340395760500000222e+01,7.788000490824372264e+02
-1.246728937499999859e+02,2.312173104250000222e+01,7.788000490824372264e+02
-1.249551203124999859e+02,2.340395760500000222e+01,7.798000490860214313e+02
-1.246728937499999859e+02,2.312173104250000222e+01,7.798000490860214313e+02
-1.249551203124999859e+02,2.340395760500000222e+01,7.818000490931899549e+02
-1.246728937499999859e+02,2.312173104250000222e+01,7.818000490931899549e+02
-1.246728937499999859e+02,2.340395760500000222e+01,7.823000490949820005e+02
-1.246728937499999859e+02,2.312173104250000222e+01,7.888000491182795031e+02
-1.246728937499999859e+02,2.340395760500000222e+01,7.893000491200716624e+02
-1.249551203124999859e+02,2.396841073000000222e+01,7.828000490967741598e+02
-1.246728937499999859e+02,2.368618416750000222e+01,7.828000490967741598e+02
-1.246728937499999859e+02,2.396841073000000222e+01,7.833000490985662054e+02
-1.246728937499999859e+02,2.396841073000000222e+01,7.893000491200716624e+02
-1.246728937499999859e+02,2.425063729250000222e+01,7.838000491003583647e+02
-1.246728937499999859e+02,2.453286385500000222e+01,7.843000491021505240e+02
-1.246728937499999859e+02,2.453286385500000222e+01,7.893000491200716624e+02
-1.246728937499999859e+02,2.481509041750000222e+01,7.848000491039425697e+02
-1.249551203124999859e+02,2.509731698000000222e+01,7.848000491039425697e+02
-1.249551203124999859e+02,2.509731698000000222e+01,7.858000491075268883e+02
-1.246728937499999859e+02,2.481509041750000222e+01,7.858000491075268883e+02
-1.246728937499999859e+02,2.509731698000000222e+01,7.863000491093189339e+02
-1.249551203124999859e+02,2.509731698000000222e+01,7.888000491182795031e+02
-1.246728937499999859e+02,2.481509041750000222e+01,7.888000491182795031e+02
-1.246728937499999859e+02,2.509731698000000222e+01,7.883000491164874575e+02
-1.246728937499999859e+02,2.566177010500000222e+01,7.863000491093189339e+02
-1.249551203124999859e+02,2.566177010500000222e+01,7.878000491146952982e+02
-1.246728937499999859e+02,2.537954354250000222e+01,7.878000491146952982e+02
-1.246728937499999859e+02,2.566177010500000222e+01,7.873000491129031388e+02
-1.246728937499999859e+02,2.594399666750000222e+01,7.868000491111110932e+02
-1.249551203124999859e+02,2.622622323000000222e+01,7.868000491111110932e+02
-1.243906671874999859e+02,7.599270105000000441e+00,7.558000489999999445e+02
-1.241084406249999859e+02,8.728176355000000441e+00,7.563000490017921038e+02
-1.241084406249999859e+02,8.445949792500000441e+00,7.568000490035841494e+02
-1.241084406249999859e+02,8.728176355000000441e+00,7.573000490053763087e+02
-1.241084406249999859e+02,9.010402917500000441e+00,7.568000490035841494e+02
-1.243906671874999859e+02,9.292629480000000441e+00,7.568000490035841494e+02
-1.243906671874999859e+02,9.857082605000000441e+00,7.578000490071683544e+02
-1.243906671874999859e+02,1.042153573000000044e+01,7.588000490107526730e+02
-1.243906671874999859e+02,1.042153573000000044e+01,7.598000490143368779e+02
-1.241084406249999859e+02,1.042153573000000044e+01,7.603000490161289235e+02
-1.241084406249999859e+02,1.013930916750000044e+01,7.608000490179210829e+02
-1.241084406249999859e+02,1.042153573000000044e+01,7.613000490197132422e+02
-1.241084406249999859e+02,1.098598885500000044e+01,7.583000490089605137e+02
-1.241084406249999859e+02,1.070376229250000044e+01,7.588000490107526730e+02
-1.241084406249999859e+02,1.070376229250000044e+01,7.598000490143368779e+02
-1.241084406249999859e+02,1.070376229250000044e+01,7.618000490215052878e+02
-1.241084406249999859e+02,1.098598885500000044e+01,7.623000490232974471e+02
-1.241084406249999859e+02,1.126821541750000044e+01,7.588000490107526730e+02
-1.243906671874999859e+02,1.155044198000000044e+01,7.588000490107526730e+02
-1.241084406249999859e+02,1.155044198000000044e+01,7.593000490125447186e+02
-1.241084406249999859e+02,1.126821541750000044e+01,7.628000490250896064e+02
-1.241084406249999859e+02,1.126821541750000044e+01,7.638000490286738113e+02
-1.241084406249999859e+02,1.126821541750000044e+01,7.648000490322580163e+02
-1.241084406249999859e+02,1.126821541750000044e+01,7.658000490358422212e+02
-1.241084406249999859e+02,1.126821541750000044e+01,7.668000490394264261e+02
-1.241084406249999859e+02,1.126821541750000044e+01,7.678000490430107448e+02
-1.241084406249999859e+02,1.126821541750000044e+01,7.688000490465949497e+02
-1.241084406249999859e+02,1.126821541750000044e+01,7.698000490501791546e+02
-1.241084406249999859e+02,1.126821541750000044e+01,7.708000490537633596e+02
-1.243906671874999859e+02,1.155044198000000044e+01,7.708000490537633596e+02
-1.241084406249999859e+02,1.155044198000000044e+01,7.713000490555555189e+02
-1.243906671874999859e+02,1.155044198000000044e+01,7.728000490609318831e+02
-1.241084406249999859e+02,1.155044198000000044e+01,7.723000490591397238e+02
-1.241084406249999859e+02,1.126821541750000044e+01,7.728000490609318831e+02
-1.241084406249999859e+02,1.126821541750000044e+01,7.738000490645160880e+02
-1.241084406249999859e+02,1.155044198000000044e+01,7.743000490663082473e+02
-1.243906671874999859e+02,1.211489510500000044e+01,7.588000490107526730e+02
-1.241084406249999859e+02,1.211489510500000044e+01,7.593000490125447186e+02
-1.241084406249999859e+02,1.183266854250000044e+01,7.718000490573476782e+02
-1.241084406249999859e+02,1.183266854250000044e+01,7.748000490681002930e+02
-1.243906671874999859e+02,1.211489510500000044e+01,7.758000490716844979e+02
-1.241084406249999859e+02,1.211489510500000044e+01,7.753000490698924523e+02
-1.241084406249999859e+02,1.267934823000000044e+01,7.593000490125447186e+02
-1.243906671874999859e+02,1.267934823000000044e+01,7.608000490179210829e+02
-1.241084406249999859e+02,1.239712166750000044e+01,7.608000490179210829e+02
-1.241084406249999859e+02,1.267934823000000044e+01,7.603000490161289235e+02
-1.241084406249999859e+02,1.267934823000000044e+01,7.613000490197132422e+02
-1.241084406249999859e+02,1.239712166750000044e+01,7.758000490716844979e+02
-1.241084406249999859e+02,1.267934823000000044e+01,7.763000490734766572e+02
-1.241084406249999859e+02,1.324380135500000044e+01,7.593000490125447186e+02
-1.241084406249999859e+02,1.324380135500000044e+01,7.603000490161289235e+02
-1.241084406249999859e+02,1.324380135500000044e+01,7.613000490197132422e+02
-1.241084406249999859e+02,1.296157479250000044e+01,7.768000490752688165e+02
-1.241084406249999859e+02,1.324380135500000044e+01,7.773000490770608621e+02
-1.241084406249999859e+02,1.380825448000000044e+01,7.593000490125447186e+02
-1.241084406249999859e+02,1.380825448000000044e+01,7.603000490161289235e+02
-1.241084406249999859e+02,1.380825448000000044e+01,7.613000490197132422e+02
-1.241084406249999859e+02,1.352602791750000044e+01,7.778000490788530215e+02
-1.241084406249999859e+02,1.380825448000000044e+01,7.783000490806450671e+02
-1.241084406249999859e+02,1.409048104250000044e+01,7.598000490143368779e+02
-1.241084406249999859e+02,1.437270760500000044e+01,7.613000490197132422e+02
-1.241084406249999859e+02,1.409048104250000044e+01,7.788000490824372264e+02
-1.241084406249999859e+02,1.437270760500000044e+01,7.793000490842293857e+02
-1.241084406249999859e+02,1.465493416750000044e+01,7.618000490215052878e+02
-1.243906671874999859e+02,1.493716073000000044e+01,7.618000490215052878e+02
-1.241084406249999859e+02,1.493716073000000044e+01,7.623000490232974471e+02
-1.241084406249999859e+02,1.465493416750000044e+01,7.798000490860214313e+02
-1.241084406249999859e+02,1.465493416750000044e+01,7.808000490896056363e+02
-1.243906671874999859e+02,1.493716073000000044e+01,7.808000490896056363e+02
-1.241084406249999859e+02,1.493716073000000044e+01,7.813000490913977956e+02
-1.243906671874999859e+02,1.493716073000000044e+01,7.828000490967741598e+02
-1.241084406249999859e+02,1.550161385500000044e+01,7.623000490232974471e+02
-1.241084406249999859e+02,1.550161385500000044e+01,7.813000490913977956e+02
-1.243906671874999859e+02,1.550161385500000044e+01,7.818000490931899549e+02
-1.241084406249999859e+02,1.550161385500000044e+01,7.823000490949820005e+02
-1.241084406249999859e+02,1.521938729250000044e+01,7.828000490967741598e+02
-1.243906671874999859e+02,1.550161385500000044e+01,7.838000491003583647e+02
-1.241084406249999859e+02,1.550161385500000044e+01,7.833000490985662054e+02
-1.241084406249999859e+02,1.606606698000000222e+01,7.623000490232974471e+02
-1.241084406249999859e+02,1.578384041750000044e+01,7.818000490931899549e+02
-1.241084406249999859e+02,1.578384041750000044e+01,7.838000491003583647e+02
-1.241084406249999859e+02,1.606606698000000222e+01,7.843000491021505240e+02
-1.241084406249999859e+02,1.634829354250000222e+01,7.628000490250896064e+02
-1.241084406249999859e+02,1.663052010500000222e+01,7.633000490268816520e+02
-1.241084406249999859e+02,1.663052010500000222e+01,7.843000491021505240e+02
-1.241084406249999859e+02,1.691274666750000222e+01,7.638000490286738113e+02
-1.241084406249999859e+02,1.691274666750000222e+01,7.648000490322580163e+02
-1.241084406249999859e+02,1.691274666750000222e+01,7.658000490358422212e+02
-1.241084406249999859e+02,1.691274666750000222e+01,7.668000490394264261e+02
-1.241084406249999859e+02,1.691274666750000222e+01,7.678000490430107448e+02
-1.241084406249999859e+02,1.719497323000000222e+01,7.683000490448027904e+02
-1.243906671874999859e+02,1.719497323000000222e+01,7.848000491039425697e+02
-1.241084406249999859e+02,1.719497323000000222e+01,7.843000491021505240e+02
-1.241084406249999859e+02,1.775942635500000222e+01,7.683000490448027904e+02
-1.241084406249999859e+02,1.747719979250000222e+01,7.848000491039425697e+02
-1.241084406249999859e+02,1.775942635500000222e+01,7.853000491057347290e+02
-1.241084406249999859e+02,1.832387948000000222e+01,7.683000490448027904e+02
-1.241084406249999859e+02,1.804165291750000222e+01,7.858000491075268883e+02
-1.241084406249999859e+02,1.832387948000000222e+01,7.863000491093189339e+02
-1.241084406249999859e+02,1.888833260500000222e+01,7.683000490448027904e+02
-1.241084406249999859e+02,1.860610604250000222e+01,7.738000490645160880e+02
-1.241084406249999859e+02,1.888833260500000222e+01,7.733000490627239287e+02
-1.241084406249999859e+02,1.888833260500000222e+01,7.743000490663082473e+02
-1.241084406249999859e+02,1.860610604250000222e+01,7.868000491111110932e+02
-1.241084406249999859e+02,1.888833260500000222e+01,7.873000491129031388e+02
-1.241084406249999859e+02,1.945278573000000222e+01,7.683000490448027904e+02
-1.241084406249999859e+02,1.945278573000000222e+01,7.733000490627239287e+02
-1.241084406249999859e+02,1.945278573000000222e+01,7.743000490663082473e+02
-1.241084406249999859e+02,1.945278573000000222e+01,7.873000491129031388e+02
-1.241084406249999859e+02,1.973501229250000222e+01,7.688000490465949497e+02
-1.243906671874999859e+02,2.001723885500000222e+01,7.688000490465949497e+02
-1.243906671874999859e+02,2.001723885500000222e+01,7.698000490501791546e+02
-1.241084406249999859e+02,1.973501229250000222e+01,7.698000490501791546e+02
-1.243906671874999859e+02,2.001723885500000222e+01,7.708000490537633596e+02
-1.241084406249999859e+02,1.973501229250000222e+01,7.708000490537633596e+02
-1.241084406249999859e+02,2.001723885500000222e+01,7.713000490555555189e+02
-1.243906671874999859e+02,2.001723885500000222e+01,7.728000490609318831e+02
-1.241084406249999859e+02,1.973501229250000222e+01,7.728000490609318831e+02
-1.241084406249999859e+02,2.001723885500000222e+01,7.723000490591397238e+02
-1.241084406249999859e+02,1.973501229250000222e+01,7.748000490681002930e+02
-1.243906671874999859e+02,2.001723885500000222e+01,7.748000490681002930e+02
-1.241084406249999859e+02,2.001723885500000222e+01,7.753000490698924523e+02
-1.241084406249999859e+02,2.001723885500000222e+01,7.873000491129031388e+02
-1.241084406249999859e+02,2.029946541750000222e+01,7.718000490573476782e+02
-1.241084406249999859e+02,2.058169198000000222e+01,7.753000490698924523e+02
-1.241084406249999859e+02,2.058169198000000222e+01,7.873000491129031388e+02
-1.241084406249999859e+02,2.086391854250000222e+01,7.758000490716844979e+02
-1.243906671874999859e+02,2.114614510500000222e+01,7.758000490716844979e+02
-1.241084406249999859e+02,2.114614510500000222e+01,7.763000490734766572e+02
-1.241084406249999859e+02,2.086391854250000222e+01,7.878000491146952982e+02
-1.241084406249999859e+02,2.114614510500000222e+01,7.883000491164874575e+02
-1.241084406249999859e+02,2.171059823000000222e+01,7.763000490734766572e+02
-1.241084406249999859e+02,2.171059823000000222e+01,7.883000491164874575e+02
-1.241084406249999859e+02,2.227505135500000222e+01,7.763000490734766572e+02
-1.241084406249999859e+02,2.227505135500000222e+01,7.883000491164874575e+02
-1.241084406249999859e+02,2.255727791750000222e+01,7.768000490752688165e+02
-1.243906671874999859e+02,2.283950448000000222e+01,7.768000490752688165e+02
-1.241084406249999859e+02,2.283950448000000222e+01,7.773000490770608621e+02
-1.243906671874999859e+02,2.283950448000000222e+01,7.788000490824372264e+02
-1.241084406249999859e+02,2.255727791750000222e+01,7.788000490824372264e+02
-1.241084406249999859e+02,2.283950448000000222e+01,7.783000490806450671e+02
-1.241084406249999859e+02,2.283950448000000222e+01,7.793000490842293857e+02
-1.241084406249999859e+02,2.255727791750000222e+01,7.808000490896056363e+02
-1.241084406249999859e+02,2.283950448000000222e+01,7.803000490878135906e+02
-1.243906671874999859e+02,2.283950448000000222e+01,7.818000490931899549e+02
-1.241084406249999859e+02,2.255727791750000222e+01,7.818000490931899549e+02
-1.241084406249999859e+02,2.283950448000000222e+01,7.823000490949820005e+02
-1.241084406249999859e+02,2.255727791750000222e+01,7.888000491182795031e+02
-1.243906671874999859e+02,2.283950448000000222e+01,7.888000491182795031e+02
-1.241084406249999859e+02,2.283950448000000222e+01,7.893000491200716624e+02
-1.241084406249999859e+02,2.312173104250000222e+01,7.778000490788530215e+02
-1.241084406249999859e+02,2.312173104250000222e+01,7.798000490860214313e+02
-1.241084406249999859e+02,2.340395760500000222e+01,7.823000490949820005e+02
-1.241084406249999859e+02,2.340395760500000222e+01,7.893000491200716624e+02
-1.241084406249999859e+02,2.368618416750000222e+01,7.828000490967741598e+02
-1.243906671874999859e+02,2.396841073000000222e+01,7.838000491003583647e+02
-1.241084406249999859e+02,2.368618416750000222e+01,7.838000491003583647e+02
-1.241084406249999859e+02,2.396841073000000222e+01,7.843000491021505240e+02
-1.241084406249999859e+02,2.396841073000000222e+01,7.893000491200716624e+02
-1.243906671874999859e+02,2.453286385500000222e+01,7.848000491039425697e+02
-1.241084406249999859e+02,2.425063729250000222e+01,7.848000491039425697e+02
-1.241084406249999859e+02,2.453286385500000222e+01,7.853000491057347290e+02
-1.243906671874999859e+02,2.453286385500000222e+01,7.888000491182795031e+02
-1.241084406249999859e+02,2.425063729250000222e+01,7.888000491182795031e+02
-1.241084406249999859e+02,2.453286385500000222e+01,7.883000491164874575e+02
-1.241084406249999859e+02,2.481509041750000222e+01,7.858000491075268883e+02
-1.241084406249999859e+02,2.509731698000000222e+01,7.863000491093189339e+02
-1.243906671874999859e+02,2.509731698000000222e+01,7.878000491146952982e+02
-1.241084406249999859e+02,2.481509041750000222e+01,7.878000491146952982e+02
-1.241084406249999859e+02,2.509731698000000222e+01,7.873000491129031388e+02
-1.241084406249999859e+02,2.537954354250000222e+01,7.868000491111110932e+02
-1.243906671874999859e+02,2.566177010500000222e+01,7.868000491111110932e+02
-1.238262140624999859e+02,8.728176355000000441e+00,7.568000490035841494e+02
-1.238262140624999859e+02,1.042153573000000044e+01,7.608000490179210829e+02
-1.238262140624999859e+02,1.098598885500000044e+01,7.588000490107526730e+02
-1.235439874999999859e+02,1.098598885500000044e+01,7.593000490125447186e+02
-1.235439874999999859e+02,1.070376229250000044e+01,7.598000490143368779e+02
-1.235439874999999859e+02,1.070376229250000044e+01,7.608000490179210829e+02
-1.235439874999999859e+02,1.070376229250000044e+01,7.618000490215052878e+02
-1.235439874999999859e+02,1.098598885500000044e+01,7.623000490232974471e+02
-1.235439874999999859e+02,1.155044198000000044e+01,7.593000490125447186e+02
-1.235439874999999859e+02,1.126821541750000044e+01,7.628000490250896064e+02
-1.235439874999999859e+02,1.126821541750000044e+01,7.638000490286738113e+02
-1.235439874999999859e+02,1.126821541750000044e+01,7.648000490322580163e+02
-1.235439874999999859e+02,1.126821541750000044e+01,7.658000490358422212e+02
-1.235439874999999859e+02,1.126821541750000044e+01,7.668000490394264261e+02
-1.235439874999999859e+02,1.126821541750000044e+01,7.678000490430107448e+02
-1.235439874999999859e+02,1.126821541750000044e+01,7.688000490465949497e+02
-1.235439874999999859e+02,1.126821541750000044e+01,7.698000490501791546e+02
-1.235439874999999859e+02,1.126821541750000044e+01,7.708000490537633596e+02
-1.235439874999999859e+02,1.126821541750000044e+01,7.718000490573476782e+02
-1.238262140624999859e+02,1.155044198000000044e+01,7.718000490573476782e+02
-1.235439874999999859e+02,1.126821541750000044e+01,7.728000490609318831e+02
-1.238262140624999859e+02,1.155044198000000044e+01,7.738000490645160880e+02
-1.235439874999999859e+02,1.155044198000000044e+01,7.733000490627239287e+02
-1.235439874999999859e+02,1.211489510500000044e+01,7.593000490125447186e+02
-1.235439874999999859e+02,1.183266854250000044e+01,7.738000490645160880e+02
-1.238262140624999859e+02,1.211489510500000044e+01,7.748000490681002930e+02
-1.235439874999999859e+02,1.211489510500000044e+01,7.743000490663082473e+02
-1.235439874999999859e+02,1.267934823000000044e+01,7.593000490125447186e+02
-1.235439874999999859e+02,1.239712166750000044e+01,7.608000490179210829e+02
-1.235439874999999859e+02,1.267934823000000044e+01,7.603000490161289235e+02
-1.235439874999999859e+02,1.267934823000000044e+01,7.613000490197132422e+02
-1.235439874999999859e+02,1.239712166750000044e+01,7.748000490681002930e+02
-1.238262140624999859e+02,1.267934823000000044e+01,7.758000490716844979e+02
-1.235439874999999859e+02,1.267934823000000044e+01,7.753000490698924523e+02
-1.235439874999999859e+02,1.324380135500000044e+01,7.593000490125447186e+02
-1.235439874999999859e+02,1.324380135500000044e+01,7.603000490161289235e+02
-1.235439874999999859e+02,1.324380135500000044e+01,7.613000490197132422e+02
-1.235439874999999859e+02,1.296157479250000044e+01,7.758000490716844979e+02
-1.235439874999999859e+02,1.296157479250000044e+01,7.768000490752688165e+02
-1.235439874999999859e+02,1.324380135500000044e+01,7.773000490770608621e+02
-1.235439874999999859e+02,1.352602791750000044e+01,7.598000490143368779e+02
-1.238262140624999859e+02,1.380825448000000044e+01,7.598000490143368779e+02
-1.235439874999999859e+02,1.380825448000000044e+01,7.613000490197132422e+02
-1.235439874999999859e+02,1.352602791750000044e+01,7.778000490788530215e+02
-1.235439874999999859e+02,1.380825448000000044e+01,7.783000490806450671e+02
-1.238262140624999859e+02,1.380825448000000044e+01,7.808000490896056363e+02
-1.235439874999999859e+02,1.380825448000000044e+01,7.803000490878135906e+02
-1.235439874999999859e+02,1.352602791750000044e+01,7.808000490896056363e+02
-1.235439874999999859e+02,1.380825448000000044e+01,7.813000490913977956e+02
-1.235439874999999859e+02,1.409048104250000044e+01,7.618000490215052878e+02
-1.238262140624999859e+02,1.437270760500000044e+01,7.618000490215052878e+02
-1.235439874999999859e+02,1.437270760500000044e+01,7.623000490232974471e+02
-1.235439874999999859e+02,1.409048104250000044e+01,7.788000490824372264e+02
-1.235439874999999859e+02,1.409048104250000044e+01,7.798000490860214313e+02
-1.238262140624999859e+02,1.437270760500000044e+01,7.798000490860214313e+02
-1.238262140624999859e+02,1.437270760500000044e+01,7.808000490896056363e+02
-1.235439874999999859e+02,1.437270760500000044e+01,7.813000490913977956e+02
-1.235439874999999859e+02,1.493716073000000044e+01,7.623000490232974471e+02
-1.235439874999999859e+02,1.493716073000000044e+01,7.813000490913977956e+02
-1.235439874999999859e+02,1.550161385500000044e+01,7.623000490232974471e+02
-1.235439874999999859e+02,1.550161385500000044e+01,7.813000490913977956e+02
-1.235439874999999859e+02,1.550161385500000044e+01,7.823000490949820005e+02
-1.235439874999999859e+02,1.521938729250000044e+01,7.828000490967741598e+02
-1.235439874999999859e+02,1.550161385500000044e+01,7.833000490985662054e+02
-1.235439874999999859e+02,1.578384041750000044e+01,7.628000490250896064e+02
-1.238262140624999859e+02,1.606606698000000222e+01,7.628000490250896064e+02
-1.235439874999999859e+02,1.606606698000000222e+01,7.633000490268816520e+02
-1.235439874999999859e+02,1.578384041750000044e+01,7.818000490931899549e+02
-1.235439874999999859e+02,1.578384041750000044e+01,7.838000491003583647e+02
-1.235439874999999859e+02,1.606606698000000222e+01,7.843000491021505240e+02
-1.238262140624999859e+02,1.663052010500000222e+01,7.638000490286738113e+02
-1.235439874999999859e+02,1.634829354250000222e+01,7.638000490286738113e+02
-1.235439874999999859e+02,1.663052010500000222e+01,7.643000490304658570e+02
-1.235439874999999859e+02,1.663052010500000222e+01,7.843000491021505240e+02
-1.235439874999999859e+02,1.691274666750000222e+01,7.648000490322580163e+02
-1.235439874999999859e+02,1.691274666750000222e+01,7.658000490358422212e+02
-1.235439874999999859e+02,1.691274666750000222e+01,7.668000490394264261e+02
-1.235439874999999859e+02,1.691274666750000222e+01,7.678000490430107448e+02
-1.235439874999999859e+02,1.719497323000000222e+01,7.683000490448027904e+02
-1.235439874999999859e+02,1.719497323000000222e+01,7.843000491021505240e+02
-1.235439874999999859e+02,1.775942635500000222e+01,7.683000490448027904e+02
-1.235439874999999859e+02,1.747719979250000222e+01,7.848000491039425697e+02
-1.235439874999999859e+02,1.775942635500000222e+01,7.853000491057347290e+02
-1.235439874999999859e+02,1.832387948000000222e+01,7.683000490448027904e+02
-1.235439874999999859e+02,1.804165291750000222e+01,7.858000491075268883e+02
-1.235439874999999859e+02,1.832387948000000222e+01,7.863000491093189339e+02
-1.235439874999999859e+02,1.888833260500000222e+01,7.683000490448027904e+02
-1.235439874999999859e+02,1.860610604250000222e+01,7.738000490645160880e+02
-1.235439874999999859e+02,1.888833260500000222e+01,7.733000490627239287e+02
-1.235439874999999859e+02,1.888833260500000222e+01,7.743000490663082473e+02
-1.235439874999999859e+02,1.860610604250000222e+01,7.868000491111110932e+02
-1.235439874999999859e+02,1.888833260500000222e+01,7.873000491129031388e+02
-1.235439874999999859e+02,1.945278573000000222e+01,7.683000490448027904e+02
-1.238262140624999859e+02,1.945278573000000222e+01,7.708000490537633596e+02
-1.235439874999999859e+02,1.917055916750000222e+01,7.708000490537633596e+02
-1.235439874999999859e+02,1.945278573000000222e+01,7.703000490519713139e+02
-1.235439874999999859e+02,1.945278573000000222e+01,7.713000490555555189e+02
-1.238262140624999859e+02,1.945278573000000222e+01,7.728000490609318831e+02
-1.235439874999999859e+02,1.917055916750000222e+01,7.728000490609318831e+02
-1.235439874999999859e+02,1.945278573000000222e+01,7.723000490591397238e+02
-1.235439874999999859e+02,1.945278573000000222e+01,7.743000490663082473e+02
-1.235439874999999859e+02,1.945278573000000222e+01,7.873000491129031388e+02
-1.235439874999999859e+02,1.973501229250000222e+01,7.688000490465949497e+02
-1.235439874999999859e+02,1.973501229250000222e+01,7.698000490501791546e+02
-1.238262140624999859e+02,2.001723885500000222e+01,7.718000490573476782e+02
-1.235439874999999859e+02,1.973501229250000222e+01,7.718000490573476782e+02
-1.235439874999999859e+02,1.973501229250000222e+01,7.748000490681002930e+02
-1.235439874999999859e+02,2.001723885500000222e+01,7.753000490698924523e+02
-1.235439874999999859e+02,2.001723885500000222e+01,7.873000491129031388e+02
-1.235439874999999859e+02,2.058169198000000222e+01,7.753000490698924523e+02
-1.235439874999999859e+02,2.029946541750000222e+01,7.878000491146952982e+02
-1.238262140624999859e+02,2.058169198000000222e+01,7.878000491146952982e+02
-1.235439874999999859e+02,2.058169198000000222e+01,7.883000491164874575e+02
-1.235439874999999859e+02,2.086391854250000222e+01,7.758000490716844979e+02
-1.235439874999999859e+02,2.114614510500000222e+01,7.763000490734766572e+02
-1.235439874999999859e+02,2.114614510500000222e+01,7.883000491164874575e+02
-1.235439874999999859e+02,2.171059823000000222e+01,7.763000490734766572e+02
-1.235439874999999859e+02,2.171059823000000222e+01,7.883000491164874575e+02
-1.235439874999999859e+02,2.199282479250000222e+01,7.768000490752688165e+02
-1.238262140624999859e+02,2.227505135500000222e+01,7.768000490752688165e+02
-1.235439874999999859e+02,2.227505135500000222e+01,7.773000490770608621e+02
-1.238262140624999859e+02,2.227505135500000222e+01,7.788000490824372264e+02
-1.235439874999999859e+02,2.199282479250000222e+01,7.788000490824372264e+02
-1.235439874999999859e+02,2.227505135500000222e+01,7.783000490806450671e+02
-1.235439874999999859e+02,2.227505135500000222e+01,7.793000490842293857e+02
-1.238262140624999859e+02,2.227505135500000222e+01,7.808000490896056363e+02
-1.235439874999999859e+02,2.199282479250000222e+01,7.808000490896056363e+02
-1.235439874999999859e+02,2.227505135500000222e+01,7.803000490878135906e+02
-1.235439874999999859e+02,2.227505135500000222e+01,7.813000490913977956e+02
-1.235439874999999859e+02,2.227505135500000222e+01,7.883000491164874575e+02
-1.238262140624999859e+02,2.283950448000000222e+01,7.778000490788530215e+02
-1.235439874999999859e+02,2.255727791750000222e+01,7.778000490788530215e+02
-1.238262140624999859e+02,2.283950448000000222e+01,7.798000490860214313e+02
-1.235439874999999859e+02,2.255727791750000222e+01,7.798000490860214313e+02
-1.235439874999999859e+02,2.255727791750000222e+01,7.818000490931899549e+02
-1.235439874999999859e+02,2.283950448000000222e+01,7.823000490949820005e+02
-1.238262140624999859e+02,2.283950448000000222e+01,7.888000491182795031e+02
-1.235439874999999859e+02,2.283950448000000222e+01,7.883000491164874575e+02
-1.235439874999999859e+02,2.312173104250000222e+01,7.828000490967741598e+02
-1.238262140624999859e+02,2.340395760500000222e+01,7.828000490967741598e+02
-1.235439874999999859e+02,2.340395760500000222e+01,7.833000490985662054e+02
-1.235439874999999859e+02,2.312173104250000222e+01,7.888000491182795031e+02
-1.235439874999999859e+02,2.340395760500000222e+01,7.893000491200716624e+02
-1.235439874999999859e+02,2.368618416750000222e+01,7.838000491003583647e+02
-1.235439874999999859e+02,2.396841073000000222e+01,7.843000491021505240e+02
-1.235439874999999859e+02,2.396841073000000222e+01,7.893000491200716624e+02
-1.235439874999999859e+02,2.425063729250000222e+01,7.848000491039425697e+02
-1.238262140624999859e+02,2.453286385500000222e+01,7.858000491075268883e+02
-1.235439874999999859e+02,2.425063729250000222e+01,7.858000491075268883e+02
-1.235439874999999859e+02,2.453286385500000222e+01,7.863000491093189339e+02
-1.238262140624999859e+02,2.453286385500000222e+01,7.878000491146952982e+02
-1.235439874999999859e+02,2.425063729250000222e+01,7.878000491146952982e+02
-1.235439874999999859e+02,2.453286385500000222e+01,7.873000491129031388e+02
-1.235439874999999859e+02,2.425063729250000222e+01,7.888000491182795031e+02
-1.235439874999999859e+02,2.509731698000000222e+01,7.863000491093189339e+02
-1.235439874999999859e+02,2.509731698000000222e+01,7.873000491129031388e+02
-1.235439874999999859e+02,2.537954354250000222e+01,7.868000491111110932e+02
-1.229795343749999859e+02,1.098598885500000044e+01,7.593000490125447186e+02
-1.229795343749999859e+02,1.070376229250000044e+01,7.598000490143368779e+02
-1.229795343749999859e+02,1.070376229250000044e+01,7.608000490179210829e+02
-1.229795343749999859e+02,1.070376229250000044e+01,7.618000490215052878e+02
-1.229795343749999859e+02,1.098598885500000044e+01,7.623000490232974471e+02
-1.229795343749999859e+02,1.155044198000000044e+01,7.593000490125447186e+02
-1.229795343749999859e+02,1.126821541750000044e+01,7.628000490250896064e+02
-1.229795343749999859e+02,1.126821541750000044e+01,7.638000490286738113e+02
-1.229795343749999859e+02,1.126821541750000044e+01,7.648000490322580163e+02
-1.229795343749999859e+02,1.126821541750000044e+01,7.658000490358422212e+02
-1.229795343749999859e+02,1.126821541750000044e+01,7.668000490394264261e+02
-1.229795343749999859e+02,1.126821541750000044e+01,7.678000490430107448e+02
-1.232617609374999859e+02,1.155044198000000044e+01,7.688000490465949497e+02
-1.229795343749999859e+02,1.155044198000000044e+01,7.683000490448027904e+02
-1.232617609374999859e+02,1.155044198000000044e+01,7.698000490501791546e+02
-1.229795343749999859e+02,1.155044198000000044e+01,7.703000490519713139e+02
-1.229795343749999859e+02,1.126821541750000044e+01,7.708000490537633596e+02
-1.229795343749999859e+02,1.126821541750000044e+01,7.718000490573476782e+02
-1.232617609374999859e+02,1.155044198000000044e+01,7.728000490609318831e+02
-1.229795343749999859e+02,1.155044198000000044e+01,7.723000490591397238e+02
-1.229795343749999859e+02,1.211489510500000044e+01,7.593000490125447186e+02
-1.232617609374999859e+02,1.211489510500000044e+01,7.608000490179210829e+02
-1.229795343749999859e+02,1.183266854250000044e+01,7.608000490179210829e+02
-1.229795343749999859e+02,1.211489510500000044e+01,7.603000490161289235e+02
-1.229795343749999859e+02,1.211489510500000044e+01,7.613000490197132422e+02
-1.229795343749999859e+02,1.183266854250000044e+01,7.688000490465949497e+02
-1.229795343749999859e+02,1.183266854250000044e+01,7.698000490501791546e+02
-1.229795343749999859e+02,1.183266854250000044e+01,7.728000490609318831e+02
-1.229795343749999859e+02,1.183266854250000044e+01,7.738000490645160880e+02
-1.229795343749999859e+02,1.211489510500000044e+01,7.743000490663082473e+02
-1.229795343749999859e+02,1.267934823000000044e+01,7.593000490125447186e+02
-1.229795343749999859e+02,1.267934823000000044e+01,7.603000490161289235e+02
-1.229795343749999859e+02,1.267934823000000044e+01,7.613000490197132422e+02
-1.229795343749999859e+02,1.239712166750000044e+01,7.748000490681002930e+02
-1.229795343749999859e+02,1.267934823000000044e+01,7.753000490698924523e+02
-1.229795343749999859e+02,1.296157479250000044e+01,7.598000490143368779e+02
-1.232617609374999859e+02,1.324380135500000044e+01,7.598000490143368779e+02
-1.229795343749999859e+02,1.324380135500000044e+01,7.613000490197132422e+02
-1.229795343749999859e+02,1.296157479250000044e+01,7.758000490716844979e+02
-1.229795343749999859e+02,1.296157479250000044e+01,7.768000490752688165e+02
-1.229795343749999859e+02,1.324380135500000044e+01,7.773000490770608621e+02
-1.229795343749999859e+02,1.380825448000000044e+01,7.613000490197132422e+02
-1.229795343749999859e+02,1.352602791750000044e+01,7.778000490788530215e+02
-1.229795343749999859e+02,1.380825448000000044e+01,7.783000490806450671e+02
-1.232617609374999859e+02,1.380825448000000044e+01,7.808000490896056363e+02
-1.229795343749999859e+02,1.409048104250000044e+01,7.618000490215052878e+02
-1.229795343749999859e+02,1.437270760500000044e+01,7.623000490232974471e+02
-1.229795343749999859e+02,1.409048104250000044e+01,7.788000490824372264e+02
-1.229795343749999859e+02,1.409048104250000044e+01,7.798000490860214313e+02
-1.229795343749999859e+02,1.409048104250000044e+01,7.808000490896056363e+02
-1.229795343749999859e+02,1.437270760500000044e+01,7.813000490913977956e+02
-1.229795343749999859e+02,1.493716073000000044e+01,7.623000490232974471e+02
-1.229795343749999859e+02,1.493716073000000044e+01,7.813000490913977956e+02
-1.232617609374999859e+02,1.493716073000000044e+01,7.828000490967741598e+02
-1.229795343749999859e+02,1.493716073000000044e+01,7.823000490949820005e+02
-1.229795343749999859e+02,1.465493416750000044e+01,7.828000490967741598e+02
-1.229795343749999859e+02,1.493716073000000044e+01,7.833000490985662054e+02
-1.229795343749999859e+02,1.521938729250000044e+01,7.628000490250896064e+02
-1.232617609374999859e+02,1.550161385500000044e+01,7.628000490250896064e+02
-1.229795343749999859e+02,1.550161385500000044e+01,7.633000490268816520e+02
-1.229795343749999859e+02,1.550161385500000044e+01,7.813000490913977956e+02
-1.229795343749999859e+02,1.550161385500000044e+01,7.823000490949820005e+02
-1.229795343749999859e+02,1.550161385500000044e+01,7.833000490985662054e+02
-1.229795343749999859e+02,1.606606698000000222e+01,7.633000490268816520e+02
-1.229795343749999859e+02,1.578384041750000044e+01,7.818000490931899549e+02
-1.232617609374999859e+02,1.606606698000000222e+01,7.838000491003583647e+02
-1.229795343749999859e+02,1.606606698000000222e+01,7.833000490985662054e+02
-1.229795343749999859e+02,1.634829354250000222e+01,7.638000490286738113e+02
-1.232617609374999859e+02,1.663052010500000222e+01,7.648000490322580163e+02
-1.229795343749999859e+02,1.634829354250000222e+01,7.648000490322580163e+02
-1.232617609374999859e+02,1.663052010500000222e+01,7.658000490358422212e+02
-1.229795343749999859e+02,1.634829354250000222e+01,7.658000490358422212e+02
-1.229795343749999859e+02,1.663052010500000222e+01,7.663000490376343805e+02
-1.229795343749999859e+02,1.634829354250000222e+01,7.838000491003583647e+02
-1.229795343749999859e+02,1.663052010500000222e+01,7.843000491021505240e+02
-1.229795343749999859e+02,1.691274666750000222e+01,7.668000490394264261e+02
-1.229795343749999859e+02,1.691274666750000222e+01,7.678000490430107448e+02
-1.229795343749999859e+02,1.719497323000000222e+01,7.683000490448027904e+02
-1.229795343749999859e+02,1.719497323000000222e+01,7.843000491021505240e+02
-1.229795343749999859e+02,1.775942635500000222e+01,7.683000490448027904e+02
-1.232617609374999859e+02,1.775942635500000222e+01,7.848000491039425697e+02
-1.229795343749999859e+02,1.775942635500000222e+01,7.843000491021505240e+02
-1.229795343749999859e+02,1.747719979250000222e+01,7.858000491075268883e+02
-1.229795343749999859e+02,1.775942635500000222e+01,7.853000491057347290e+02
-1.232617609374999859e+02,1.775942635500000222e+01,7.858000491075268883e+02
-1.229795343749999859e+02,1.775942635500000222e+01,7.863000491093189339e+02
-1.229795343749999859e+02,1.832387948000000222e+01,7.683000490448027904e+02
-1.232617609374999859e+02,1.832387948000000222e+01,7.738000490645160880e+02
-1.229795343749999859e+02,1.804165291750000222e+01,7.738000490645160880e+02
-1.229795343749999859e+02,1.832387948000000222e+01,7.733000490627239287e+02
-1.229795343749999859e+02,1.832387948000000222e+01,7.743000490663082473e+02
-1.229795343749999859e+02,1.804165291750000222e+01,7.848000491039425697e+02
-1.229795343749999859e+02,1.832387948000000222e+01,7.863000491093189339e+02
-1.229795343749999859e+02,1.888833260500000222e+01,7.683000490448027904e+02
-1.232617609374999859e+02,1.888833260500000222e+01,7.728000490609318831e+02
-1.229795343749999859e+02,1.860610604250000222e+01,7.728000490609318831e+02
-1.229795343749999859e+02,1.888833260500000222e+01,7.723000490591397238e+02
-1.229795343749999859e+02,1.888833260500000222e+01,7.743000490663082473e+02
-1.229795343749999859e+02,1.860610604250000222e+01,7.868000491111110932e+02
-1.229795343749999859e+02,1.888833260500000222e+01,7.873000491129031388e+02
-1.229795343749999859e+02,1.945278573000000222e+01,7.683000490448027904e+02
-1.232617609374999859e+02,1.945278573000000222e+01,7.698000490501791546e+02
-1.229795343749999859e+02,1.917055916750000222e+01,7.698000490501791546e+02
-1.229795343749999859e+02,1.945278573000000222e+01,7.693000490483869953e+02
-1.229795343749999859e+02,1.917055916750000222e+01,7.708000490537633596e+02
-1.229795343749999859e+02,1.945278573000000222e+01,7.713000490555555189e+02
-1.229795343749999859e+02,1.945278573000000222e+01,7.723000490591397238e+02
-1.229795343749999859e+02,1.917055916750000222e+01,7.748000490681002930e+02
-1.232617609374999859e+02,1.945278573000000222e+01,7.748000490681002930e+02
-1.229795343749999859e+02,1.945278573000000222e+01,7.753000490698924523e+02
-1.229795343749999859e+02,1.945278573000000222e+01,7.873000491129031388e+02
-1.229795343749999859e+02,1.973501229250000222e+01,7.688000490465949497e+02
-1.229795343749999859e+02,1.973501229250000222e+01,7.718000490573476782e+02
-1.229795343749999859e+02,2.001723885500000222e+01,7.753000490698924523e+02
-1.229795343749999859e+02,2.001723885500000222e+01,7.873000491129031388e+02
-1.229795343749999859e+02,2.029946541750000222e+01,7.758000490716844979e+02
-1.232617609374999859e+02,2.058169198000000222e+01,7.758000490716844979e+02
-1.229795343749999859e+02,2.058169198000000222e+01,7.763000490734766572e+02
-1.232617609374999859e+02,2.058169198000000222e+01,7.878000491146952982e+02
-1.229795343749999859e+02,2.058169198000000222e+01,7.873000491129031388e+02
-1.229795343749999859e+02,2.114614510500000222e+01,7.763000490734766572e+02
-1.229795343749999859e+02,2.086391854250000222e+01,7.878000491146952982e+02
-1.229795343749999859e+02,2.114614510500000222e+01,7.883000491164874575e+02
-1.229795343749999859e+02,2.142837166750000222e+01,7.768000490752688165e+02
-1.232617609374999859e+02,2.171059823000000222e+01,7.768000490752688165e+02
-1.229795343749999859e+02,2.171059823000000222e+01,7.773000490770608621e+02
-1.232617609374999859e+02,2.171059823000000222e+01,7.788000490824372264e+02
-1.229795343749999859e+02,2.142837166750000222e+01,7.788000490824372264e+02
-1.229795343749999859e+02,2.171059823000000222e+01,7.783000490806450671e+02
-1.229795343749999859e+02,2.171059823000000222e+01,7.793000490842293857e+02
-1.232617609374999859e+02,2.171059823000000222e+01,7.808000490896056363e+02
-1.229795343749999859e+02,2.142837166750000222e+01,7.808000490896056363e+02
-1.229795343749999859e+02,2.171059823000000222e+01,7.803000490878135906e+02
-1.229795343749999859e+02,2.171059823000000222e+01,7.813000490913977956e+02
-1.229795343749999859e+02,2.171059823000000222e+01,7.883000491164874575e+02
-1.232617609374999859e+02,2.227505135500000222e+01,7.778000490788530215e+02
-1.229795343749999859e+02,2.199282479250000222e+01,7.778000490788530215e+02
-1.232617609374999859e+02,2.227505135500000222e+01,7.798000490860214313e+02
-1.229795343749999859e+02,2.199282479250000222e+01,7.798000490860214313e+02
-1.232617609374999859e+02,2.227505135500000222e+01,7.818000490931899549e+02
-1.229795343749999859e+02,2.199282479250000222e+01,7.818000490931899549e+02
-1.229795343749999859e+02,2.227505135500000222e+01,7.823000490949820005e+02
-1.229795343749999859e+02,2.227505135500000222e+01,7.883000491164874575e+02
-1.232617609374999859e+02,2.283950448000000222e+01,7.828000490967741598e+02
-1.229795343749999859e+02,2.255727791750000222e+01,7.828000490967741598e+02
-1.229795343749999859e+02,2.283950448000000222e+01,7.833000490985662054e+02
-1.229795343749999859e+02,2.283950448000000222e+01,7.883000491164874575e+02
-1.232617609374999859e+02,2.340395760500000222e+01,7.838000491003583647e+02
-1.229795343749999859e+02,2.312173104250000222e+01,7.838000491003583647e+02
-1.229795343749999859e+02,2.340395760500000222e+01,7.843000491021505240e+02
-1.232617609374999859e+02,2.340395760500000222e+01,7.888000491182795031e+02
-1.229795343749999859e+02,2.340395760500000222e+01,7.883000491164874575e+02
-1.232617609374999859e+02,2.396841073000000222e+01,7.848000491039425697e+02
-1.229795343749999859e+02,2.368618416750000222e+01,7.848000491039425697e+02
-1.229795343749999859e+02,2.396841073000000222e+01,7.853000491057347290e+02
-1.232617609374999859e+02,2.396841073000000222e+01,7.878000491146952982e+02
-1.229795343749999859e+02,2.368618416750000222e+01,7.878000491146952982e+02
-1.229795343749999859e+02,2.396841073000000222e+01,7.873000491129031388e+02
-1.232617609374999859e+02,2.396841073000000222e+01,7.888000491182795031e+02
-1.229795343749999859e+02,2.425063729250000222e+01,7.858000491075268883e+02
-1.229795343749999859e+02,2.453286385500000222e+01,7.863000491093189339e+02
-1.229795343749999859e+02,2.453286385500000222e+01,7.873000491129031388e+02
-1.229795343749999859e+02,2.481509041750000222e+01,7.868000491111110932e+02
-1.232617609374999859e+02,2.509731698000000222e+01,7.868000491111110932e+02
-1.224150812499999859e+02,1.098598885500000044e+01,7.593000490125447186e+02
-1.224150812499999859e+02,1.070376229250000044e+01,7.598000490143368779e+02
-1.226973078124999859e+02,1.098598885500000044e+01,7.608000490179210829e+02
-1.224150812499999859e+02,1.098598885500000044e+01,7.603000490161289235e+02
-1.226973078124999859e+02,1.098598885500000044e+01,7.618000490215052878e+02
-1.224150812499999859e+02,1.155044198000000044e+01,7.593000490125447186e+02
-1.226973078124999859e+02,1.155044198000000044e+01,7.608000490179210829e+02
-1.224150812499999859e+02,1.155044198000000044e+01,7.603000490161289235e+02
-1.224150812499999859e+02,1.155044198000000044e+01,7.613000490197132422e+02
-1.224150812499999859e+02,1.126821541750000044e+01,7.618000490215052878e+02
-1.224150812499999859e+02,1.126821541750000044e+01,7.628000490250896064e+02
-1.224150812499999859e+02,1.126821541750000044e+01,7.638000490286738113e+02
-1.224150812499999859e+02,1.126821541750000044e+01,7.648000490322580163e+02
-1.224150812499999859e+02,1.126821541750000044e+01,7.658000490358422212e+02
-1.224150812499999859e+02,1.126821541750000044e+01,7.668000490394264261e+02
-1.226973078124999859e+02,1.155044198000000044e+01,7.678000490430107448e+02
-1.224150812499999859e+02,1.155044198000000044e+01,7.673000490412185854e+02
-1.224150812499999859e+02,1.155044198000000044e+01,7.703000490519713139e+02
-1.224150812499999859e+02,1.126821541750000044e+01,7.708000490537633596e+02
-1.226973078124999859e+02,1.155044198000000044e+01,7.718000490573476782e+02
-1.224150812499999859e+02,1.155044198000000044e+01,7.713000490555555189e+02
-1.224150812499999859e+02,1.211489510500000044e+01,7.593000490125447186e+02
-1.224150812499999859e+02,1.211489510500000044e+01,7.603000490161289235e+02
-1.224150812499999859e+02,1.211489510500000044e+01,7.613000490197132422e+02
-1.224150812499999859e+02,1.183266854250000044e+01,7.678000490430107448e+02
-1.224150812499999859e+02,1.183266854250000044e+01,7.688000490465949497e+02
-1.224150812499999859e+02,1.183266854250000044e+01,7.698000490501791546e+02
-1.224150812499999859e+02,1.183266854250000044e+01,7.718000490573476782e+02
