-2.047843780000000038e+02,-1.851562500000000000e+02,-4.022500000000000000e+02
-2.043937530000000038e+02,-1.851562500000000000e+02,-4.010000000000000000e+02
-2.043937530000000038e+02,-1.843750000000000000e+02,-4.085000000000000000e+02
-2.043937530000000038e+02,-1.847656250000000000e+02,-4.022500000000000000e+02
-2.043937530000000038e+02,-1.843750000000000000e+02,-4.035000000000000000e+02
-2.043937530000000038e+02,-1.839843750000000000e+02,-4.072500000000000000e+02
-2.047843780000000038e+02,-1.835937500000000000e+02,-4.047500000000000000e+02
-2.043937530000000038e+02,-1.835937500000000000e+02,-4.060000000000000000e+02
-2.043937530000000038e+02,-1.835937500000000000e+02,-4.035000000000000000e+02
-2.043937530000000038e+02,-1.832031250000000000e+02,-4.047500000000000000e+02
-2.040031280000000038e+02,-1.968750000000000000e+02,-4.097500000000000000e+02
-2.036125030000000038e+02,-1.968750000000000000e+02,-4.110000000000000000e+02
-2.036125030000000038e+02,-1.972656250000000000e+02,-4.097500000000000000e+02
-2.036125030000000038e+02,-1.972656250000000000e+02,-4.072500000000000000e+02
-2.036125030000000038e+02,-1.972656250000000000e+02,-4.047500000000000000e+02
-2.040031280000000038e+02,-1.968750000000000000e+02,-4.047500000000000000e+02
-2.036125030000000038e+02,-1.968750000000000000e+02,-4.035000000000000000e+02
-2.040031280000000038e+02,-1.960937500000000000e+02,-4.122500000000000000e+02
-2.036125030000000038e+02,-1.960937500000000000e+02,-4.135000000000000000e+02
-2.036125030000000038e+02,-1.964843750000000000e+02,-4.122500000000000000e+02
-2.036125030000000038e+02,-1.960937500000000000e+02,-4.035000000000000000e+02
-2.036125030000000038e+02,-1.953125000000000000e+02,-4.135000000000000000e+02
-2.036125030000000038e+02,-1.957031250000000000e+02,-4.022500000000000000e+02
-2.040031280000000038e+02,-1.953125000000000000e+02,-4.022500000000000000e+02
-2.036125030000000038e+02,-1.953125000000000000e+02,-4.010000000000000000e+02
-2.036125030000000038e+02,-1.945312500000000000e+02,-4.135000000000000000e+02
-2.036125030000000038e+02,-1.945312500000000000e+02,-4.010000000000000000e+02
-2.040031280000000038e+02,-1.937500000000000000e+02,-4.147500000000000000e+02
-2.036125030000000038e+02,-1.941406250000000000e+02,-4.147500000000000000e+02
-2.036125030000000038e+02,-1.937500000000000000e+02,-4.010000000000000000e+02
-2.040031280000000038e+02,-1.929687500000000000e+02,-4.147500000000000000e+02
-2.036125030000000038e+02,-1.929687500000000000e+02,-4.010000000000000000e+02
-2.040031280000000038e+02,-1.921875000000000000e+02,-4.147500000000000000e+02
-2.036125030000000038e+02,-1.921875000000000000e+02,-4.010000000000000000e+02
-2.040031280000000038e+02,-1.914062500000000000e+02,-4.147500000000000000e+02
-2.036125030000000038e+02,-1.914062500000000000e+02,-4.010000000000000000e+02
-2.040031280000000038e+02,-1.906250000000000000e+02,-4.147500000000000000e+02
-2.036125030000000038e+02,-1.906250000000000000e+02,-4.010000000000000000e+02
-2.036125030000000038e+02,-1.902343750000000000e+02,-4.147500000000000000e+02
-2.036125030000000038e+02,-1.898437500000000000e+02,-4.135000000000000000e+02
-2.036125030000000038e+02,-1.898437500000000000e+02,-4.010000000000000000e+02
-2.036125030000000038e+02,-1.890625000000000000e+02,-4.135000000000000000e+02
-2.036125030000000038e+02,-1.890625000000000000e+02,-4.010000000000000000e+02
-2.040031280000000038e+02,-1.882812500000000000e+02,-4.122500000000000000e+02
-2.036125030000000038e+02,-1.882812500000000000e+02,-4.135000000000000000e+02
-2.036125030000000038e+02,-1.882812500000000000e+02,-4.010000000000000000e+02
-2.036125030000000038e+02,-1.878906250000000000e+02,-4.122500000000000000e+02
-2.036125030000000038e+02,-1.875000000000000000e+02,-4.110000000000000000e+02
-2.036125030000000038e+02,-1.875000000000000000e+02,-4.010000000000000000e+02
-2.036125030000000038e+02,-1.867187500000000000e+02,-4.110000000000000000e+02
-2.036125030000000038e+02,-1.867187500000000000e+02,-4.010000000000000000e+02
-2.036125030000000038e+02,-1.859375000000000000e+02,-4.110000000000000000e+02
-2.036125030000000038e+02,-1.859375000000000000e+02,-4.010000000000000000e+02
-2.036125030000000038e+02,-1.855468750000000000e+02,-4.097500000000000000e+02
-2.036125030000000038e+02,-1.851562500000000000e+02,-4.085000000000000000e+02
-2.036125030000000038e+02,-1.851562500000000000e+02,-4.010000000000000000e+02
-2.036125030000000038e+02,-1.843750000000000000e+02,-4.085000000000000000e+02
-2.040031280000000038e+02,-1.843750000000000000e+02,-4.022500000000000000e+02
-2.036125030000000038e+02,-1.843750000000000000e+02,-4.010000000000000000e+02
-2.040031280000000038e+02,-1.835937500000000000e+02,-4.072500000000000000e+02
-2.036125030000000038e+02,-1.835937500000000000e+02,-4.085000000000000000e+02
-2.036125030000000038e+02,-1.839843750000000000e+02,-4.022500000000000000e+02
-2.036125030000000038e+02,-1.835937500000000000e+02,-4.035000000000000000e+02
-2.036125030000000038e+02,-1.832031250000000000e+02,-4.072500000000000000e+02
-2.036125030000000038e+02,-1.832031250000000000e+02,-4.047500000000000000e+02
-2.032218780000000038e+02,-1.976562500000000000e+02,-4.097500000000000000e+02
-2.028312530000000038e+02,-1.976562500000000000e+02,-4.110000000000000000e+02
-2.028312530000000038e+02,-1.980468750000000000e+02,-4.097500000000000000e+02
-2.028312530000000038e+02,-1.980468750000000000e+02,-4.072500000000000000e+02
-2.032218780000000038e+02,-1.976562500000000000e+02,-4.072500000000000000e+02
-2.028312530000000038e+02,-1.976562500000000000e+02,-4.060000000000000000e+02
-2.032218780000000038e+02,-1.968750000000000000e+02,-4.122500000000000000e+02
-2.028312530000000038e+02,-1.968750000000000000e+02,-4.135000000000000000e+02
-2.028312530000000038e+02,-1.972656250000000000e+02,-4.122500000000000000e+02
-2.028312530000000038e+02,-1.972656250000000000e+02,-4.047500000000000000e+02
-2.028312530000000038e+02,-1.968750000000000000e+02,-4.035000000000000000e+02
-2.028312530000000038e+02,-1.960937500000000000e+02,-4.135000000000000000e+02
-2.028312530000000038e+02,-1.960937500000000000e+02,-4.035000000000000000e+02
-2.028312530000000038e+02,-1.953125000000000000e+02,-4.135000000000000000e+02
-2.028312530000000038e+02,-1.957031250000000000e+02,-4.022500000000000000e+02
-2.028312530000000038e+02,-1.953125000000000000e+02,-4.010000000000000000e+02
-2.032218780000000038e+02,-1.945312500000000000e+02,-4.147500000000000000e+02
-2.028312530000000038e+02,-1.949218750000000000e+02,-4.147500000000000000e+02
-2.028312530000000038e+02,-1.945312500000000000e+02,-4.010000000000000000e+02
-2.028312530000000038e+02,-1.937500000000000000e+02,-4.010000000000000000e+02
-2.028312530000000038e+02,-1.929687500000000000e+02,-4.010000000000000000e+02
-2.028312530000000038e+02,-1.921875000000000000e+02,-4.010000000000000000e+02
-2.028312530000000038e+02,-1.914062500000000000e+02,-4.010000000000000000e+02
-2.028312530000000038e+02,-1.906250000000000000e+02,-4.010000000000000000e+02
-2.028312530000000038e+02,-1.902343750000000000e+02,-4.147500000000000000e+02
-2.028312530000000038e+02,-1.898437500000000000e+02,-4.135000000000000000e+02
-2.028312530000000038e+02,-1.898437500000000000e+02,-4.010000000000000000e+02
-2.028312530000000038e+02,-1.890625000000000000e+02,-4.135000000000000000e+02
-2.028312530000000038e+02,-1.890625000000000000e+02,-4.010000000000000000e+02
-2.028312530000000038e+02,-1.882812500000000000e+02,-4.135000000000000000e+02
-2.028312530000000038e+02,-1.882812500000000000e+02,-4.010000000000000000e+02
-2.032218780000000038e+02,-1.875000000000000000e+02,-4.122500000000000000e+02
-2.028312530000000038e+02,-1.875000000000000000e+02,-4.135000000000000000e+02
-2.028312530000000038e+02,-1.875000000000000000e+02,-4.010000000000000000e+02
-2.028312530000000038e+02,-1.871093750000000000e+02,-4.122500000000000000e+02
-2.028312530000000038e+02,-1.867187500000000000e+02,-4.110000000000000000e+02
-2.028312530000000038e+02,-1.867187500000000000e+02,-4.010000000000000000e+02
-2.028312530000000038e+02,-1.859375000000000000e+02,-4.110000000000000000e+02
-2.028312530000000038e+02,-1.859375000000000000e+02,-4.010000000000000000e+02
-2.028312530000000038e+02,-1.855468750000000000e+02,-4.097500000000000000e+02
-2.028312530000000038e+02,-1.851562500000000000e+02,-4.085000000000000000e+02
-2.028312530000000038e+02,-1.851562500000000000e+02,-4.010000000000000000e+02
-2.028312530000000038e+02,-1.843750000000000000e+02,-4.085000000000000000e+02
-2.028312530000000038e+02,-1.843750000000000000e+02,-4.010000000000000000e+02
-2.028312530000000038e+02,-1.835937500000000000e+02,-4.085000000000000000e+02
-2.028312530000000038e+02,-1.839843750000000000e+02,-4.022500000000000000e+02
-2.028312530000000038e+02,-1.835937500000000000e+02,-4.035000000000000000e+02
-2.028312530000000038e+02,-1.832031250000000000e+02,-4.072500000000000000e+02
-2.028312530000000038e+02,-1.832031250000000000e+02,-4.047500000000000000e+02
-2.024406280000000038e+02,-1.984375000000000000e+02,-4.097500000000000000e+02
-2.020500030000000038e+02,-1.984375000000000000e+02,-4.110000000000000000e+02
-2.020500030000000038e+02,-1.988281250000000000e+02,-4.097500000000000000e+02
-2.020500030000000038e+02,-1.984375000000000000e+02,-4.085000000000000000e+02
-2.024406280000000038e+02,-1.976562500000000000e+02,-4.122500000000000000e+02
-2.020500030000000038e+02,-1.976562500000000000e+02,-4.135000000000000000e+02
-2.020500030000000038e+02,-1.980468750000000000e+02,-4.122500000000000000e+02
-2.020500030000000038e+02,-1.980468750000000000e+02,-4.072500000000000000e+02
-2.020500030000000038e+02,-1.976562500000000000e+02,-4.060000000000000000e+02
-2.020500030000000038e+02,-1.968750000000000000e+02,-4.135000000000000000e+02
-2.020500030000000038e+02,-1.972656250000000000e+02,-4.047500000000000000e+02
-2.020500030000000038e+02,-1.968750000000000000e+02,-4.035000000000000000e+02
-2.020500030000000038e+02,-1.960937500000000000e+02,-4.135000000000000000e+02
-2.020500030000000038e+02,-1.960937500000000000e+02,-4.035000000000000000e+02
-2.024406280000000038e+02,-1.953125000000000000e+02,-4.147500000000000000e+02
-2.020500030000000038e+02,-1.957031250000000000e+02,-4.147500000000000000e+02
-2.020500030000000038e+02,-1.957031250000000000e+02,-4.022500000000000000e+02
-2.020500030000000038e+02,-1.953125000000000000e+02,-4.010000000000000000e+02
-2.020500030000000038e+02,-1.945312500000000000e+02,-4.010000000000000000e+02
-2.020500030000000038e+02,-1.937500000000000000e+02,-4.010000000000000000e+02
-2.020500030000000038e+02,-1.933593750000000000e+02,-3.997500000000000000e+02
-2.024406280000000038e+02,-1.929687500000000000e+02,-3.997500000000000000e+02
-2.024406280000000038e+02,-1.921875000000000000e+02,-3.997500000000000000e+02
-2.020500030000000038e+02,-1.917968750000000000e+02,-3.997500000000000000e+02
-2.020500030000000038e+02,-1.914062500000000000e+02,-4.010000000000000000e+02
-2.020500030000000038e+02,-1.906250000000000000e+02,-4.010000000000000000e+02
-2.020500030000000038e+02,-1.902343750000000000e+02,-4.147500000000000000e+02
-2.020500030000000038e+02,-1.898437500000000000e+02,-4.135000000000000000e+02
-2.020500030000000038e+02,-1.898437500000000000e+02,-4.010000000000000000e+02
-2.020500030000000038e+02,-1.890625000000000000e+02,-4.135000000000000000e+02
-2.020500030000000038e+02,-1.890625000000000000e+02,-4.010000000000000000e+02
-2.020500030000000038e+02,-1.882812500000000000e+02,-4.135000000000000000e+02
-2.020500030000000038e+02,-1.882812500000000000e+02,-4.010000000000000000e+02
-2.020500030000000038e+02,-1.875000000000000000e+02,-4.135000000000000000e+02
-2.020500030000000038e+02,-1.875000000000000000e+02,-4.010000000000000000e+02
-2.020500030000000038e+02,-1.871093750000000000e+02,-4.122500000000000000e+02
-2.020500030000000038e+02,-1.867187500000000000e+02,-4.110000000000000000e+02
-2.020500030000000038e+02,-1.867187500000000000e+02,-4.010000000000000000e+02
-2.020500030000000038e+02,-1.859375000000000000e+02,-4.110000000000000000e+02
-2.020500030000000038e+02,-1.859375000000000000e+02,-4.010000000000000000e+02
-2.020500030000000038e+02,-1.855468750000000000e+02,-4.097500000000000000e+02
-2.020500030000000038e+02,-1.851562500000000000e+02,-4.085000000000000000e+02
-2.020500030000000038e+02,-1.851562500000000000e+02,-4.010000000000000000e+02
-2.020500030000000038e+02,-1.843750000000000000e+02,-4.085000000000000000e+02
-2.020500030000000038e+02,-1.843750000000000000e+02,-4.010000000000000000e+02
-2.020500030000000038e+02,-1.835937500000000000e+02,-4.085000000000000000e+02
-2.020500030000000038e+02,-1.839843750000000000e+02,-4.022500000000000000e+02
-2.020500030000000038e+02,-1.835937500000000000e+02,-4.035000000000000000e+02
-2.020500030000000038e+02,-1.832031250000000000e+02,-4.072500000000000000e+02
-2.020500030000000038e+02,-1.832031250000000000e+02,-4.047500000000000000e+02
-2.012687530000000038e+02,-1.984375000000000000e+02,-4.110000000000000000e+02
-2.012687530000000038e+02,-1.988281250000000000e+02,-4.097500000000000000e+02
-2.012687530000000038e+02,-1.988281250000000000e+02,-4.072500000000000000e+02
-2.016593780000000038e+02,-1.984375000000000000e+02,-4.072500000000000000e+02
-2.012687530000000038e+02,-1.984375000000000000e+02,-4.060000000000000000e+02
-2.012687530000000038e+02,-1.976562500000000000e+02,-4.135000000000000000e+02
-2.012687530000000038e+02,-1.980468750000000000e+02,-4.122500000000000000e+02
-2.012687530000000038e+02,-1.976562500000000000e+02,-4.060000000000000000e+02
-2.012687530000000038e+02,-1.968750000000000000e+02,-4.135000000000000000e+02
-2.012687530000000038e+02,-1.972656250000000000e+02,-4.047500000000000000e+02
-2.012687530000000038e+02,-1.968750000000000000e+02,-4.035000000000000000e+02
-2.016593780000000038e+02,-1.960937500000000000e+02,-4.147500000000000000e+02
-2.012687530000000038e+02,-1.964843750000000000e+02,-4.147500000000000000e+02
-2.012687530000000038e+02,-1.960937500000000000e+02,-4.035000000000000000e+02
-2.012687530000000038e+02,-1.957031250000000000e+02,-4.022500000000000000e+02
-2.012687530000000038e+02,-1.953125000000000000e+02,-4.010000000000000000e+02
-2.012687530000000038e+02,-1.945312500000000000e+02,-4.010000000000000000e+02
-2.012687530000000038e+02,-1.937500000000000000e+02,-4.010000000000000000e+02
-2.012687530000000038e+02,-1.933593750000000000e+02,-3.997500000000000000e+02
-2.016593780000000038e+02,-1.914062500000000000e+02,-3.997500000000000000e+02
-2.012687530000000038e+02,-1.910156250000000000e+02,-3.997500000000000000e+02
-2.012687530000000038e+02,-1.906250000000000000e+02,-4.010000000000000000e+02
-2.016593780000000038e+02,-1.898437500000000000e+02,-4.147500000000000000e+02
-2.012687530000000038e+02,-1.898437500000000000e+02,-4.010000000000000000e+02
-2.012687530000000038e+02,-1.894531250000000000e+02,-4.147500000000000000e+02
-2.012687530000000038e+02,-1.890625000000000000e+02,-4.135000000000000000e+02
-2.012687530000000038e+02,-1.890625000000000000e+02,-4.010000000000000000e+02
-2.012687530000000038e+02,-1.882812500000000000e+02,-4.135000000000000000e+02
-2.012687530000000038e+02,-1.882812500000000000e+02,-4.010000000000000000e+02
-2.012687530000000038e+02,-1.875000000000000000e+02,-4.135000000000000000e+02
-2.012687530000000038e+02,-1.875000000000000000e+02,-4.010000000000000000e+02
-2.012687530000000038e+02,-1.871093750000000000e+02,-4.122500000000000000e+02
-2.012687530000000038e+02,-1.867187500000000000e+02,-4.110000000000000000e+02
-2.012687530000000038e+02,-1.867187500000000000e+02,-4.010000000000000000e+02
-2.012687530000000038e+02,-1.859375000000000000e+02,-4.110000000000000000e+02
-2.012687530000000038e+02,-1.859375000000000000e+02,-4.010000000000000000e+02
-2.012687530000000038e+02,-1.855468750000000000e+02,-4.097500000000000000e+02
-2.012687530000000038e+02,-1.851562500000000000e+02,-4.085000000000000000e+02
-2.012687530000000038e+02,-1.851562500000000000e+02,-4.010000000000000000e+02
-2.012687530000000038e+02,-1.843750000000000000e+02,-4.085000000000000000e+02
-2.012687530000000038e+02,-1.843750000000000000e+02,-4.010000000000000000e+02
-2.012687530000000038e+02,-1.835937500000000000e+02,-4.085000000000000000e+02
-2.012687530000000038e+02,-1.839843750000000000e+02,-4.022500000000000000e+02
-2.012687530000000038e+02,-1.835937500000000000e+02,-4.035000000000000000e+02
-2.012687530000000038e+02,-1.832031250000000000e+02,-4.072500000000000000e+02
-2.012687530000000038e+02,-1.832031250000000000e+02,-4.047500000000000000e+02
-2.008781280000000038e+02,-1.992187500000000000e+02,-4.097500000000000000e+02
-2.004875030000000038e+02,-1.992187500000000000e+02,-4.110000000000000000e+02
-2.004875030000000038e+02,-1.996093750000000000e+02,-4.097500000000000000e+02
-2.004875030000000038e+02,-1.992187500000000000e+02,-4.085000000000000000e+02
-2.004875030000000038e+02,-1.984375000000000000e+02,-4.110000000000000000e+02
-2.004875030000000038e+02,-1.988281250000000000e+02,-4.072500000000000000e+02
-2.004875030000000038e+02,-1.984375000000000000e+02,-4.060000000000000000e+02
-2.004875030000000038e+02,-1.976562500000000000e+02,-4.135000000000000000e+02
-2.004875030000000038e+02,-1.980468750000000000e+02,-4.122500000000000000e+02
-2.004875030000000038e+02,-1.976562500000000000e+02,-4.060000000000000000e+02
-2.008781280000000038e+02,-1.968750000000000000e+02,-4.147500000000000000e+02
-2.004875030000000038e+02,-1.972656250000000000e+02,-4.147500000000000000e+02
-2.004875030000000038e+02,-1.972656250000000000e+02,-4.047500000000000000e+02
-2.004875030000000038e+02,-1.968750000000000000e+02,-4.035000000000000000e+02
-2.004875030000000038e+02,-1.960937500000000000e+02,-4.035000000000000000e+02
-2.004875030000000038e+02,-1.957031250000000000e+02,-4.022500000000000000e+02
-2.004875030000000038e+02,-1.953125000000000000e+02,-4.010000000000000000e+02
-2.004875030000000038e+02,-1.945312500000000000e+02,-4.010000000000000000e+02
-2.004875030000000038e+02,-1.937500000000000000e+02,-4.010000000000000000e+02
-2.004875030000000038e+02,-1.933593750000000000e+02,-3.997500000000000000e+02
-2.004875030000000038e+02,-1.910156250000000000e+02,-3.997500000000000000e+02
-2.004875030000000038e+02,-1.906250000000000000e+02,-4.010000000000000000e+02
-2.004875030000000038e+02,-1.898437500000000000e+02,-4.010000000000000000e+02
-2.008781280000000038e+02,-1.890625000000000000e+02,-4.147500000000000000e+02
-2.004875030000000038e+02,-1.890625000000000000e+02,-4.010000000000000000e+02
-2.004875030000000038e+02,-1.886718750000000000e+02,-4.147500000000000000e+02
-2.004875030000000038e+02,-1.882812500000000000e+02,-4.135000000000000000e+02
-2.004875030000000038e+02,-1.882812500000000000e+02,-4.010000000000000000e+02
-2.004875030000000038e+02,-1.875000000000000000e+02,-4.135000000000000000e+02
-2.004875030000000038e+02,-1.875000000000000000e+02,-4.010000000000000000e+02
-2.004875030000000038e+02,-1.871093750000000000e+02,-4.122500000000000000e+02
-2.004875030000000038e+02,-1.867187500000000000e+02,-4.110000000000000000e+02
-2.004875030000000038e+02,-1.867187500000000000e+02,-4.010000000000000000e+02
-2.004875030000000038e+02,-1.859375000000000000e+02,-4.110000000000000000e+02
-2.004875030000000038e+02,-1.859375000000000000e+02,-4.010000000000000000e+02
-2.004875030000000038e+02,-1.855468750000000000e+02,-4.097500000000000000e+02
-2.004875030000000038e+02,-1.851562500000000000e+02,-4.085000000000000000e+02
-2.004875030000000038e+02,-1.851562500000000000e+02,-4.010000000000000000e+02
-2.004875030000000038e+02,-1.843750000000000000e+02,-4.085000000000000000e+02
-2.008781280000000038e+02,-1.843750000000000000e+02,-4.022500000000000000e+02
-2.004875030000000038e+02,-1.847656250000000000e+02,-4.022500000000000000e+02
-2.004875030000000038e+02,-1.843750000000000000e+02,-4.035000000000000000e+02
-2.004875030000000038e+02,-1.839843750000000000e+02,-4.072500000000000000e+02
-2.008781280000000038e+02,-1.835937500000000000e+02,-4.072500000000000000e+02
-2.004875030000000038e+02,-1.835937500000000000e+02,-4.060000000000000000e+02
-2.004875030000000038e+02,-1.835937500000000000e+02,-4.035000000000000000e+02
-2.004875030000000038e+02,-1.832031250000000000e+02,-4.047500000000000000e+02
-1.997062530000000038e+02,-1.992187500000000000e+02,-4.110000000000000000e+02
-1.997062530000000038e+02,-1.996093750000000000e+02,-4.097500000000000000e+02
-1.997062530000000038e+02,-1.996093750000000000e+02,-4.072500000000000000e+02
-2.000968780000000038e+02,-1.992187500000000000e+02,-4.072500000000000000e+02
-1.997062530000000038e+02,-1.992187500000000000e+02,-4.060000000000000000e+02
-1.997062530000000038e+02,-1.984375000000000000e+02,-4.110000000000000000e+02
-1.997062530000000038e+02,-1.984375000000000000e+02,-4.060000000000000000e+02
-1.997062530000000038e+02,-1.976562500000000000e+02,-4.135000000000000000e+02
-1.997062530000000038e+02,-1.980468750000000000e+02,-4.122500000000000000e+02
-1.997062530000000038e+02,-1.980468750000000000e+02,-4.047500000000000000e+02
-2.000968780000000038e+02,-1.976562500000000000e+02,-4.047500000000000000e+02
-1.997062530000000038e+02,-1.976562500000000000e+02,-4.035000000000000000e+02
-1.997062530000000038e+02,-1.972656250000000000e+02,-4.147500000000000000e+02
-1.997062530000000038e+02,-1.968750000000000000e+02,-4.035000000000000000e+02
-1.997062530000000038e+02,-1.960937500000000000e+02,-4.035000000000000000e+02
-1.997062530000000038e+02,-1.957031250000000000e+02,-4.022500000000000000e+02
-1.997062530000000038e+02,-1.953125000000000000e+02,-4.010000000000000000e+02
-1.997062530000000038e+02,-1.945312500000000000e+02,-4.010000000000000000e+02
-1.997062530000000038e+02,-1.937500000000000000e+02,-4.010000000000000000e+02
-1.997062530000000038e+02,-1.933593750000000000e+02,-3.997500000000000000e+02
-2.000968780000000038e+02,-1.906250000000000000e+02,-3.997500000000000000e+02
-1.997062530000000038e+02,-1.902343750000000000e+02,-3.997500000000000000e+02
-1.997062530000000038e+02,-1.898437500000000000e+02,-4.010000000000000000e+02
-1.997062530000000038e+02,-1.890625000000000000e+02,-4.010000000000000000e+02
-1.997062530000000038e+02,-1.886718750000000000e+02,-4.147500000000000000e+02
-1.997062530000000038e+02,-1.882812500000000000e+02,-4.135000000000000000e+02
-1.997062530000000038e+02,-1.882812500000000000e+02,-4.010000000000000000e+02
-1.997062530000000038e+02,-1.875000000000000000e+02,-4.135000000000000000e+02
-1.997062530000000038e+02,-1.875000000000000000e+02,-4.010000000000000000e+02
-1.997062530000000038e+02,-1.871093750000000000e+02,-4.122500000000000000e+02
-1.997062530000000038e+02,-1.867187500000000000e+02,-4.110000000000000000e+02
-1.997062530000000038e+02,-1.867187500000000000e+02,-4.010000000000000000e+02
-1.997062530000000038e+02,-1.859375000000000000e+02,-4.110000000000000000e+02
-1.997062530000000038e+02,-1.859375000000000000e+02,-4.010000000000000000e+02
-1.997062530000000038e+02,-1.855468750000000000e+02,-4.097500000000000000e+02
-1.997062530000000038e+02,-1.851562500000000000e+02,-4.085000000000000000e+02
-1.997062530000000038e+02,-1.851562500000000000e+02,-4.010000000000000000e+02
-1.997062530000000038e+02,-1.847656250000000000e+02,-4.072500000000000000e+02
-2.000968780000000038e+02,-1.843750000000000000e+02,-4.072500000000000000e+02
-1.997062530000000038e+02,-1.843750000000000000e+02,-4.060000000000000000e+02
-1.997062530000000038e+02,-1.847656250000000000e+02,-4.022500000000000000e+02
-1.997062530000000038e+02,-1.843750000000000000e+02,-4.035000000000000000e+02
-2.000968780000000038e+02,-1.835937500000000000e+02,-4.047500000000000000e+02
-1.997062530000000038e+02,-1.839843750000000000e+02,-4.047500000000000000e+02
-1.989250030000000038e+02,-1.992187500000000000e+02,-4.110000000000000000e+02
-1.989250030000000038e+02,-1.996093750000000000e+02,-4.097500000000000000e+02
-1.989250030000000038e+02,-1.996093750000000000e+02,-4.072500000000000000e+02
-1.989250030000000038e+02,-1.992187500000000000e+02,-4.060000000000000000e+02
-1.989250030000000038e+02,-1.984375000000000000e+02,-4.110000000000000000e+02
-1.989250030000000038e+02,-1.984375000000000000e+02,-4.060000000000000000e+02
-1.989250030000000038e+02,-1.976562500000000000e+02,-4.135000000000000000e+02
-1.989250030000000038e+02,-1.980468750000000000e+02,-4.122500000000000000e+02
-1.989250030000000038e+02,-1.980468750000000000e+02,-4.047500000000000000e+02
-1.989250030000000038e+02,-1.976562500000000000e+02,-4.035000000000000000e+02
-1.989250030000000038e+02,-1.972656250000000000e+02,-4.147500000000000000e+02
-1.989250030000000038e+02,-1.968750000000000000e+02,-4.035000000000000000e+02
-1.989250030000000038e+02,-1.960937500000000000e+02,-4.035000000000000000e+02
-1.993156280000000038e+02,-1.953125000000000000e+02,-4.022500000000000000e+02
-1.989250030000000038e+02,-1.953125000000000000e+02,-4.035000000000000000e+02
-1.989250030000000038e+02,-1.949218750000000000e+02,-4.022500000000000000e+02
-1.989250030000000038e+02,-1.945312500000000000e+02,-4.010000000000000000e+02
-1.989250030000000038e+02,-1.937500000000000000e+02,-4.010000000000000000e+02
-1.993156280000000038e+02,-1.929687500000000000e+02,-3.997500000000000000e+02
-1.989250030000000038e+02,-1.929687500000000000e+02,-4.010000000000000000e+02
-1.989250030000000038e+02,-1.925781250000000000e+02,-3.997500000000000000e+02
-1.989250030000000038e+02,-1.902343750000000000e+02,-3.997500000000000000e+02
-1.989250030000000038e+02,-1.898437500000000000e+02,-4.010000000000000000e+02
-1.989250030000000038e+02,-1.894531250000000000e+02,-4.147500000000000000e+02
-1.993156280000000038e+02,-1.890625000000000000e+02,-4.147500000000000000e+02
-1.989250030000000038e+02,-1.890625000000000000e+02,-4.135000000000000000e+02
-1.989250030000000038e+02,-1.890625000000000000e+02,-4.010000000000000000e+02
-1.989250030000000038e+02,-1.882812500000000000e+02,-4.135000000000000000e+02
-1.989250030000000038e+02,-1.882812500000000000e+02,-4.010000000000000000e+02
-1.989250030000000038e+02,-1.875000000000000000e+02,-4.135000000000000000e+02
-1.989250030000000038e+02,-1.875000000000000000e+02,-4.010000000000000000e+02
-1.993156280000000038e+02,-1.867187500000000000e+02,-4.122500000000000000e+02
-1.989250030000000038e+02,-1.867187500000000000e+02,-4.135000000000000000e+02
-1.989250030000000038e+02,-1.867187500000000000e+02,-4.010000000000000000e+02
-1.989250030000000038e+02,-1.863281250000000000e+02,-4.122500000000000000e+02
-1.989250030000000038e+02,-1.859375000000000000e+02,-4.110000000000000000e+02
-1.989250030000000038e+02,-1.859375000000000000e+02,-4.010000000000000000e+02
-1.989250030000000038e+02,-1.855468750000000000e+02,-4.097500000000000000e+02
-1.989250030000000038e+02,-1.851562500000000000e+02,-4.085000000000000000e+02
-1.993156280000000038e+02,-1.851562500000000000e+02,-4.022500000000000000e+02
-1.989250030000000038e+02,-1.855468750000000000e+02,-4.022500000000000000e+02
-1.989250030000000038e+02,-1.851562500000000000e+02,-4.035000000000000000e+02
-1.989250030000000038e+02,-1.847656250000000000e+02,-4.072500000000000000e+02
-1.993156280000000038e+02,-1.843750000000000000e+02,-4.047500000000000000e+02
-1.989250030000000038e+02,-1.847656250000000000e+02,-4.047500000000000000e+02
-1.981437530000000038e+02,-1.992187500000000000e+02,-4.110000000000000000e+02
-1.981437530000000038e+02,-1.996093750000000000e+02,-4.097500000000000000e+02
-1.985343780000000038e+02,-1.992187500000000000e+02,-4.072500000000000000e+02
-1.981437530000000038e+02,-1.992187500000000000e+02,-4.085000000000000000e+02
-1.981437530000000038e+02,-1.984375000000000000e+02,-4.110000000000000000e+02
-1.981437530000000038e+02,-1.988281250000000000e+02,-4.072500000000000000e+02
-1.981437530000000038e+02,-1.984375000000000000e+02,-4.060000000000000000e+02
-1.981437530000000038e+02,-1.976562500000000000e+02,-4.135000000000000000e+02
-1.981437530000000038e+02,-1.980468750000000000e+02,-4.122500000000000000e+02
-1.981437530000000038e+02,-1.980468750000000000e+02,-4.047500000000000000e+02
-1.981437530000000038e+02,-1.976562500000000000e+02,-4.035000000000000000e+02
-1.981437530000000038e+02,-1.972656250000000000e+02,-4.147500000000000000e+02
-1.981437530000000038e+02,-1.968750000000000000e+02,-4.035000000000000000e+02
-1.981437530000000038e+02,-1.960937500000000000e+02,-4.035000000000000000e+02
-1.981437530000000038e+02,-1.953125000000000000e+02,-4.035000000000000000e+02
-1.985343780000000038e+02,-1.945312500000000000e+02,-4.022500000000000000e+02
-1.981437530000000038e+02,-1.945312500000000000e+02,-4.035000000000000000e+02
-1.981437530000000038e+02,-1.941406250000000000e+02,-4.022500000000000000e+02
-1.981437530000000038e+02,-1.937500000000000000e+02,-4.010000000000000000e+02
-1.981437530000000038e+02,-1.929687500000000000e+02,-4.010000000000000000e+02
-1.985343780000000038e+02,-1.921875000000000000e+02,-3.997500000000000000e+02
-1.981437530000000038e+02,-1.921875000000000000e+02,-4.010000000000000000e+02
-1.985343780000000038e+02,-1.914062500000000000e+02,-3.997500000000000000e+02
-1.981437530000000038e+02,-1.914062500000000000e+02,-4.010000000000000000e+02
-1.985343780000000038e+02,-1.906250000000000000e+02,-3.997500000000000000e+02
-1.981437530000000038e+02,-1.906250000000000000e+02,-4.010000000000000000e+02
-1.981437530000000038e+02,-1.898437500000000000e+02,-4.010000000000000000e+02
-1.981437530000000038e+02,-1.894531250000000000e+02,-4.147500000000000000e+02
-1.981437530000000038e+02,-1.890625000000000000e+02,-4.135000000000000000e+02
-1.981437530000000038e+02,-1.890625000000000000e+02,-4.010000000000000000e+02
-1.981437530000000038e+02,-1.882812500000000000e+02,-4.135000000000000000e+02
-1.985343780000000038e+02,-1.882812500000000000e+02,-4.022500000000000000e+02
-1.981437530000000038e+02,-1.886718750000000000e+02,-4.022500000000000000e+02
-1.981437530000000038e+02,-1.882812500000000000e+02,-4.035000000000000000e+02
-1.981437530000000038e+02,-1.875000000000000000e+02,-4.135000000000000000e+02
-1.985343780000000038e+02,-1.875000000000000000e+02,-4.022500000000000000e+02
-1.981437530000000038e+02,-1.875000000000000000e+02,-4.035000000000000000e+02
-1.981437530000000038e+02,-1.867187500000000000e+02,-4.135000000000000000e+02
-1.985343780000000038e+02,-1.867187500000000000e+02,-4.022500000000000000e+02
-1.981437530000000038e+02,-1.867187500000000000e+02,-4.035000000000000000e+02
-1.981437530000000038e+02,-1.863281250000000000e+02,-4.122500000000000000e+02
-1.981437530000000038e+02,-1.859375000000000000e+02,-4.110000000000000000e+02
-1.985343780000000038e+02,-1.859375000000000000e+02,-4.022500000000000000e+02
-1.981437530000000038e+02,-1.859375000000000000e+02,-4.035000000000000000e+02
-1.985343780000000038e+02,-1.851562500000000000e+02,-4.097500000000000000e+02
-1.981437530000000038e+02,-1.851562500000000000e+02,-4.110000000000000000e+02
-1.985343780000000038e+02,-1.851562500000000000e+02,-4.047500000000000000e+02
-1.981437530000000038e+02,-1.855468750000000000e+02,-4.047500000000000000e+02
-1.981437530000000038e+02,-1.851562500000000000e+02,-4.060000000000000000e+02
-1.981437530000000038e+02,-1.847656250000000000e+02,-4.097500000000000000e+02
-1.981437530000000038e+02,-1.847656250000000000e+02,-4.072500000000000000e+02
-1.973625030000000038e+02,-1.992187500000000000e+02,-4.110000000000000000e+02
-1.973625030000000038e+02,-1.996093750000000000e+02,-4.097500000000000000e+02
-1.973625030000000038e+02,-1.992187500000000000e+02,-4.085000000000000000e+02
-1.973625030000000038e+02,-1.984375000000000000e+02,-4.110000000000000000e+02
-1.973625030000000038e+02,-1.988281250000000000e+02,-4.072500000000000000e+02
-1.973625030000000038e+02,-1.984375000000000000e+02,-4.060000000000000000e+02
-1.973625030000000038e+02,-1.976562500000000000e+02,-4.135000000000000000e+02
-1.973625030000000038e+02,-1.980468750000000000e+02,-4.122500000000000000e+02
-1.973625030000000038e+02,-1.980468750000000000e+02,-4.047500000000000000e+02
-1.973625030000000038e+02,-1.976562500000000000e+02,-4.035000000000000000e+02
-1.973625030000000038e+02,-1.972656250000000000e+02,-4.147500000000000000e+02
-1.973625030000000038e+02,-1.968750000000000000e+02,-4.035000000000000000e+02
-1.973625030000000038e+02,-1.960937500000000000e+02,-4.035000000000000000e+02
-1.973625030000000038e+02,-1.953125000000000000e+02,-4.035000000000000000e+02
-1.973625030000000038e+02,-1.945312500000000000e+02,-4.035000000000000000e+02
-1.977531280000000038e+02,-1.937500000000000000e+02,-4.022500000000000000e+02
-1.973625030000000038e+02,-1.937500000000000000e+02,-4.035000000000000000e+02
-1.977531280000000038e+02,-1.929687500000000000e+02,-4.022500000000000000e+02
-1.973625030000000038e+02,-1.929687500000000000e+02,-4.035000000000000000e+02
-1.977531280000000038e+02,-1.921875000000000000e+02,-4.022500000000000000e+02
-1.973625030000000038e+02,-1.921875000000000000e+02,-4.035000000000000000e+02
-1.977531280000000038e+02,-1.914062500000000000e+02,-4.022500000000000000e+02
-1.973625030000000038e+02,-1.914062500000000000e+02,-4.035000000000000000e+02
-1.977531280000000038e+02,-1.906250000000000000e+02,-4.022500000000000000e+02
-1.973625030000000038e+02,-1.906250000000000000e+02,-4.035000000000000000e+02
-1.973625030000000038e+02,-1.902343750000000000e+02,-4.147500000000000000e+02
-1.977531280000000038e+02,-1.898437500000000000e+02,-4.147500000000000000e+02
-1.973625030000000038e+02,-1.898437500000000000e+02,-4.135000000000000000e+02
-1.977531280000000038e+02,-1.898437500000000000e+02,-4.022500000000000000e+02
-1.973625030000000038e+02,-1.898437500000000000e+02,-4.035000000000000000e+02
-1.973625030000000038e+02,-1.890625000000000000e+02,-4.135000000000000000e+02
-1.977531280000000038e+02,-1.890625000000000000e+02,-4.022500000000000000e+02
-1.973625030000000038e+02,-1.890625000000000000e+02,-4.035000000000000000e+02
-1.973625030000000038e+02,-1.882812500000000000e+02,-4.135000000000000000e+02
-1.973625030000000038e+02,-1.882812500000000000e+02,-4.035000000000000000e+02
-1.973625030000000038e+02,-1.875000000000000000e+02,-4.135000000000000000e+02
-1.973625030000000038e+02,-1.875000000000000000e+02,-4.035000000000000000e+02
-1.973625030000000038e+02,-1.867187500000000000e+02,-4.135000000000000000e+02
-1.973625030000000038e+02,-1.867187500000000000e+02,-4.035000000000000000e+02
-1.973625030000000038e+02,-1.863281250000000000e+02,-4.122500000000000000e+02
-1.973625030000000038e+02,-1.859375000000000000e+02,-4.110000000000000000e+02
-1.977531280000000038e+02,-1.859375000000000000e+02,-4.047500000000000000e+02
-1.973625030000000038e+02,-1.863281250000000000e+02,-4.047500000000000000e+02
-1.973625030000000038e+02,-1.859375000000000000e+02,-4.060000000000000000e+02
-1.973625030000000038e+02,-1.851562500000000000e+02,-4.110000000000000000e+02
-1.973625030000000038e+02,-1.851562500000000000e+02,-4.060000000000000000e+02
-1.973625030000000038e+02,-1.847656250000000000e+02,-4.097500000000000000e+02
-1.973625030000000038e+02,-1.847656250000000000e+02,-4.072500000000000000e+02
-1.969718780000000038e+02,-1.992187500000000000e+02,-4.097500000000000000e+02
-1.965812530000000038e+02,-1.984375000000000000e+02,-4.110000000000000000e+02
-1.965812530000000038e+02,-1.988281250000000000e+02,-4.097500000000000000e+02
-1.965812530000000038e+02,-1.988281250000000000e+02,-4.072500000000000000e+02
-1.965812530000000038e+02,-1.984375000000000000e+02,-4.060000000000000000e+02
-1.965812530000000038e+02,-1.976562500000000000e+02,-4.135000000000000000e+02
-1.965812530000000038e+02,-1.980468750000000000e+02,-4.122500000000000000e+02
-1.969718780000000038e+02,-1.976562500000000000e+02,-4.047500000000000000e+02
-1.965812530000000038e+02,-1.976562500000000000e+02,-4.060000000000000000e+02
-1.965812530000000038e+02,-1.972656250000000000e+02,-4.147500000000000000e+02
-1.965812530000000038e+02,-1.972656250000000000e+02,-4.047500000000000000e+02
-1.965812530000000038e+02,-1.968750000000000000e+02,-4.035000000000000000e+02
-1.965812530000000038e+02,-1.960937500000000000e+02,-4.035000000000000000e+02
-1.965812530000000038e+02,-1.953125000000000000e+02,-4.035000000000000000e+02
-1.969718780000000038e+02,-1.945312500000000000e+02,-4.047500000000000000e+02
-1.965812530000000038e+02,-1.949218750000000000e+02,-4.047500000000000000e+02
-1.965812530000000038e+02,-1.945312500000000000e+02,-4.060000000000000000e+02
-1.969718780000000038e+02,-1.937500000000000000e+02,-4.047500000000000000e+02
-1.965812530000000038e+02,-1.937500000000000000e+02,-4.060000000000000000e+02
-1.969718780000000038e+02,-1.929687500000000000e+02,-4.047500000000000000e+02
-1.965812530000000038e+02,-1.929687500000000000e+02,-4.060000000000000000e+02
-1.965812530000000038e+02,-1.925781250000000000e+02,-4.047500000000000000e+02
-1.965812530000000038e+02,-1.921875000000000000e+02,-4.035000000000000000e+02
-1.965812530000000038e+02,-1.914062500000000000e+02,-4.035000000000000000e+02
-1.965812530000000038e+02,-1.910156250000000000e+02,-4.147500000000000000e+02
-1.969718780000000038e+02,-1.906250000000000000e+02,-4.147500000000000000e+02
-1.965812530000000038e+02,-1.906250000000000000e+02,-4.135000000000000000e+02
-1.965812530000000038e+02,-1.906250000000000000e+02,-4.035000000000000000e+02
-1.965812530000000038e+02,-1.898437500000000000e+02,-4.135000000000000000e+02
-1.965812530000000038e+02,-1.898437500000000000e+02,-4.035000000000000000e+02
-1.965812530000000038e+02,-1.890625000000000000e+02,-4.135000000000000000e+02
-1.965812530000000038e+02,-1.890625000000000000e+02,-4.035000000000000000e+02
-1.965812530000000038e+02,-1.882812500000000000e+02,-4.135000000000000000e+02
-1.965812530000000038e+02,-1.882812500000000000e+02,-4.035000000000000000e+02
-1.965812530000000038e+02,-1.875000000000000000e+02,-4.135000000000000000e+02
-1.965812530000000038e+02,-1.875000000000000000e+02,-4.035000000000000000e+02
-1.965812530000000038e+02,-1.871093750000000000e+02,-4.122500000000000000e+02
-1.969718780000000038e+02,-1.867187500000000000e+02,-4.122500000000000000e+02
-1.965812530000000038e+02,-1.867187500000000000e+02,-4.110000000000000000e+02
-1.965812530000000038e+02,-1.867187500000000000e+02,-4.035000000000000000e+02
-1.965812530000000038e+02,-1.859375000000000000e+02,-4.110000000000000000e+02
-1.965812530000000038e+02,-1.863281250000000000e+02,-4.047500000000000000e+02
-1.965812530000000038e+02,-1.859375000000000000e+02,-4.060000000000000000e+02
-1.965812530000000038e+02,-1.855468750000000000e+02,-4.097500000000000000e+02
-1.969718780000000038e+02,-1.851562500000000000e+02,-4.097500000000000000e+02
-1.969718780000000038e+02,-1.851562500000000000e+02,-4.072500000000000000e+02
-1.965812530000000038e+02,-1.855468750000000000e+02,-4.072500000000000000e+02
-1.961906280000000038e+02,-1.984375000000000000e+02,-4.097500000000000000e+02
-1.961906280000000038e+02,-1.984375000000000000e+02,-4.072500000000000000e+02
-1.961906280000000038e+02,-1.976562500000000000e+02,-4.122500000000000000e+02
-1.958000030000000038e+02,-1.976562500000000000e+02,-4.110000000000000000e+02
-1.958000030000000038e+02,-1.980468750000000000e+02,-4.097500000000000000e+02
-1.958000030000000038e+02,-1.980468750000000000e+02,-4.072500000000000000e+02
-1.958000030000000038e+02,-1.976562500000000000e+02,-4.060000000000000000e+02
-1.961906280000000038e+02,-1.968750000000000000e+02,-4.147500000000000000e+02
-1.958000030000000038e+02,-1.968750000000000000e+02,-4.135000000000000000e+02
-1.958000030000000038e+02,-1.972656250000000000e+02,-4.122500000000000000e+02
-1.958000030000000038e+02,-1.972656250000000000e+02,-4.047500000000000000e+02
-1.958000030000000038e+02,-1.968750000000000000e+02,-4.035000000000000000e+02
-1.958000030000000038e+02,-1.964843750000000000e+02,-4.147500000000000000e+02
-1.958000030000000038e+02,-1.960937500000000000e+02,-4.035000000000000000e+02
-1.961906280000000038e+02,-1.953125000000000000e+02,-4.047500000000000000e+02
-1.958000030000000038e+02,-1.957031250000000000e+02,-4.047500000000000000e+02
-1.958000030000000038e+02,-1.953125000000000000e+02,-4.060000000000000000e+02
-1.958000030000000038e+02,-1.945312500000000000e+02,-4.060000000000000000e+02
-1.958000030000000038e+02,-1.937500000000000000e+02,-4.060000000000000000e+02
-1.958000030000000038e+02,-1.929687500000000000e+02,-4.060000000000000000e+02
-1.961906280000000038e+02,-1.921875000000000000e+02,-4.047500000000000000e+02
-1.958000030000000038e+02,-1.921875000000000000e+02,-4.060000000000000000e+02
-1.958000030000000038e+02,-1.917968750000000000e+02,-4.147500000000000000e+02
-1.961906280000000038e+02,-1.914062500000000000e+02,-4.147500000000000000e+02
-1.958000030000000038e+02,-1.914062500000000000e+02,-4.135000000000000000e+02
-1.961906280000000038e+02,-1.914062500000000000e+02,-4.047500000000000000e+02
-1.958000030000000038e+02,-1.914062500000000000e+02,-4.060000000000000000e+02
-1.958000030000000038e+02,-1.906250000000000000e+02,-4.135000000000000000e+02
-1.958000030000000038e+02,-1.910156250000000000e+02,-4.047500000000000000e+02
-1.958000030000000038e+02,-1.906250000000000000e+02,-4.035000000000000000e+02
-1.958000030000000038e+02,-1.898437500000000000e+02,-4.135000000000000000e+02
-1.958000030000000038e+02,-1.898437500000000000e+02,-4.035000000000000000e+02
-1.958000030000000038e+02,-1.890625000000000000e+02,-4.135000000000000000e+02
-1.958000030000000038e+02,-1.890625000000000000e+02,-4.035000000000000000e+02
-1.958000030000000038e+02,-1.882812500000000000e+02,-4.135000000000000000e+02
-1.958000030000000038e+02,-1.882812500000000000e+02,-4.035000000000000000e+02
-1.958000030000000038e+02,-1.878906250000000000e+02,-4.122500000000000000e+02
-1.961906280000000038e+02,-1.875000000000000000e+02,-4.122500000000000000e+02
-1.958000030000000038e+02,-1.875000000000000000e+02,-4.110000000000000000e+02
-1.961906280000000038e+02,-1.875000000000000000e+02,-4.047500000000000000e+02
-1.958000030000000038e+02,-1.878906250000000000e+02,-4.047500000000000000e+02
-1.958000030000000038e+02,-1.875000000000000000e+02,-4.060000000000000000e+02
-1.958000030000000038e+02,-1.867187500000000000e+02,-4.110000000000000000e+02
-1.961906280000000038e+02,-1.867187500000000000e+02,-4.047500000000000000e+02
-1.958000030000000038e+02,-1.867187500000000000e+02,-4.060000000000000000e+02
-1.958000030000000038e+02,-1.859375000000000000e+02,-4.110000000000000000e+02
-1.958000030000000038e+02,-1.859375000000000000e+02,-4.060000000000000000e+02
-1.958000030000000038e+02,-1.855468750000000000e+02,-4.097500000000000000e+02
-1.958000030000000038e+02,-1.855468750000000000e+02,-4.072500000000000000e+02
-1.950187530000000038e+02,-1.976562500000000000e+02,-4.110000000000000000e+02
-1.950187530000000038e+02,-1.980468750000000000e+02,-4.097500000000000000e+02
-1.954093780000000038e+02,-1.976562500000000000e+02,-4.072500000000000000e+02
-1.950187530000000038e+02,-1.976562500000000000e+02,-4.085000000000000000e+02
-1.954093780000000038e+02,-1.968750000000000000e+02,-4.122500000000000000e+02
-1.950187530000000038e+02,-1.968750000000000000e+02,-4.110000000000000000e+02
-1.950187530000000038e+02,-1.972656250000000000e+02,-4.072500000000000000e+02
-1.954093780000000038e+02,-1.968750000000000000e+02,-4.047500000000000000e+02
-1.950187530000000038e+02,-1.968750000000000000e+02,-4.060000000000000000e+02
-1.954093780000000038e+02,-1.960937500000000000e+02,-4.147500000000000000e+02
-1.950187530000000038e+02,-1.960937500000000000e+02,-4.135000000000000000e+02
-1.950187530000000038e+02,-1.964843750000000000e+02,-4.122500000000000000e+02
-1.954093780000000038e+02,-1.960937500000000000e+02,-4.047500000000000000e+02
-1.950187530000000038e+02,-1.960937500000000000e+02,-4.060000000000000000e+02
-1.950187530000000038e+02,-1.953125000000000000e+02,-4.135000000000000000e+02
-1.954093780000000038e+02,-1.953125000000000000e+02,-4.147500000000000000e+02
-1.950187530000000038e+02,-1.953125000000000000e+02,-4.060000000000000000e+02
-1.950187530000000038e+02,-1.945312500000000000e+02,-4.135000000000000000e+02
-1.954093780000000038e+02,-1.945312500000000000e+02,-4.147500000000000000e+02
-1.950187530000000038e+02,-1.945312500000000000e+02,-4.060000000000000000e+02
-1.950187530000000038e+02,-1.937500000000000000e+02,-4.135000000000000000e+02
-1.954093780000000038e+02,-1.937500000000000000e+02,-4.147500000000000000e+02
-1.950187530000000038e+02,-1.937500000000000000e+02,-4.060000000000000000e+02
-1.950187530000000038e+02,-1.929687500000000000e+02,-4.135000000000000000e+02
-1.954093780000000038e+02,-1.929687500000000000e+02,-4.147500000000000000e+02
-1.950187530000000038e+02,-1.929687500000000000e+02,-4.060000000000000000e+02
-1.950187530000000038e+02,-1.921875000000000000e+02,-4.135000000000000000e+02
-1.954093780000000038e+02,-1.921875000000000000e+02,-4.147500000000000000e+02
-1.950187530000000038e+02,-1.921875000000000000e+02,-4.060000000000000000e+02
-1.950187530000000038e+02,-1.914062500000000000e+02,-4.135000000000000000e+02
-1.950187530000000038e+02,-1.914062500000000000e+02,-4.060000000000000000e+02
-1.950187530000000038e+02,-1.906250000000000000e+02,-4.135000000000000000e+02
-1.954093780000000038e+02,-1.906250000000000000e+02,-4.047500000000000000e+02
-1.950187530000000038e+02,-1.906250000000000000e+02,-4.060000000000000000e+02
-1.950187530000000038e+02,-1.898437500000000000e+02,-4.135000000000000000e+02
-1.954093780000000038e+02,-1.898437500000000000e+02,-4.047500000000000000e+02
-1.950187530000000038e+02,-1.898437500000000000e+02,-4.060000000000000000e+02
-1.950187530000000038e+02,-1.890625000000000000e+02,-4.135000000000000000e+02
-1.954093780000000038e+02,-1.890625000000000000e+02,-4.047500000000000000e+02
-1.950187530000000038e+02,-1.890625000000000000e+02,-4.060000000000000000e+02
-1.950187530000000038e+02,-1.886718750000000000e+02,-4.122500000000000000e+02
-1.954093780000000038e+02,-1.882812500000000000e+02,-4.122500000000000000e+02
-1.950187530000000038e+02,-1.882812500000000000e+02,-4.110000000000000000e+02
-1.954093780000000038e+02,-1.882812500000000000e+02,-4.047500000000000000e+02
-1.950187530000000038e+02,-1.882812500000000000e+02,-4.060000000000000000e+02
-1.954093780000000038e+02,-1.875000000000000000e+02,-4.097500000000000000e+02
-1.950187530000000038e+02,-1.878906250000000000e+02,-4.097500000000000000e+02
-1.950187530000000038e+02,-1.875000000000000000e+02,-4.085000000000000000e+02
-1.950187530000000038e+02,-1.875000000000000000e+02,-4.060000000000000000e+02
-1.954093780000000038e+02,-1.867187500000000000e+02,-4.097500000000000000e+02
-1.950187530000000038e+02,-1.871093750000000000e+02,-4.072500000000000000e+02
-1.954093780000000038e+02,-1.867187500000000000e+02,-4.072500000000000000e+02
-1.954093780000000038e+02,-1.859375000000000000e+02,-4.097500000000000000e+02
-1.954093780000000038e+02,-1.859375000000000000e+02,-4.072500000000000000e+02
-1.946281280000000038e+02,-1.976562500000000000e+02,-4.097500000000000000e+02
-1.946281280000000038e+02,-1.968750000000000000e+02,-4.097500000000000000e+02
-1.946281280000000038e+02,-1.968750000000000000e+02,-4.072500000000000000e+02
-1.946281280000000038e+02,-1.960937500000000000e+02,-4.122500000000000000e+02
-1.942375030000000038e+02,-1.960937500000000000e+02,-4.110000000000000000e+02
-1.942375030000000038e+02,-1.964843750000000000e+02,-4.097500000000000000e+02
-1.942375030000000038e+02,-1.960937500000000000e+02,-4.085000000000000000e+02
-1.946281280000000038e+02,-1.960937500000000000e+02,-4.072500000000000000e+02
-1.946281280000000038e+02,-1.953125000000000000e+02,-4.122500000000000000e+02
-1.942375030000000038e+02,-1.953125000000000000e+02,-4.110000000000000000e+02
-1.946281280000000038e+02,-1.953125000000000000e+02,-4.072500000000000000e+02
-1.942375030000000038e+02,-1.953125000000000000e+02,-4.085000000000000000e+02
-1.946281280000000038e+02,-1.945312500000000000e+02,-4.122500000000000000e+02
-1.942375030000000038e+02,-1.945312500000000000e+02,-4.110000000000000000e+02
-1.946281280000000038e+02,-1.945312500000000000e+02,-4.072500000000000000e+02
-1.942375030000000038e+02,-1.945312500000000000e+02,-4.085000000000000000e+02
-1.946281280000000038e+02,-1.937500000000000000e+02,-4.122500000000000000e+02
-1.942375030000000038e+02,-1.937500000000000000e+02,-4.110000000000000000e+02
-1.946281280000000038e+02,-1.937500000000000000e+02,-4.072500000000000000e+02
-1.942375030000000038e+02,-1.937500000000000000e+02,-4.085000000000000000e+02
