-1.679441385000000082e+02,-1.472773449999999968e+02,-2.481150049999999965e+02
-1.679441385000000082e+02,-1.472773449999999968e+02,-2.462400049662162189e+02
-1.676218729999999937e+02,-1.472773449999999968e+02,-2.465525049718468438e+02
-1.676218729999999937e+02,-1.475996105000000114e+02,-2.462400049662162189e+02
-1.676218729999999937e+02,-1.472773449999999968e+02,-2.453025049493243159e+02
-1.676218729999999937e+02,-1.472773449999999968e+02,-2.446775049380630662e+02
-1.676218729999999937e+02,-1.472773449999999968e+02,-2.440525049268017881e+02
-1.676218729999999937e+02,-1.466328139999999962e+02,-2.478025049943693716e+02
-1.679441385000000082e+02,-1.466328139999999962e+02,-2.481150049999999965e+02
-1.679441385000000082e+02,-1.466328139999999962e+02,-2.462400049662162189e+02
-1.676218729999999937e+02,-1.466328139999999962e+02,-2.465525049718468438e+02
-1.676218729999999937e+02,-1.469550795000000107e+02,-2.449900049436936911e+02
-1.679441385000000082e+02,-1.466328139999999962e+02,-2.449900049436936911e+02
-1.676218729999999937e+02,-1.466328139999999962e+02,-2.440525049268017881e+02
-1.676218729999999937e+02,-1.459882829999999956e+02,-2.478025049943693716e+02
-1.679441385000000082e+02,-1.459882829999999956e+02,-2.481150049999999965e+02
-1.679441385000000082e+02,-1.459882829999999956e+02,-2.468650049774774686e+02
-1.676218729999999937e+02,-1.459882829999999956e+02,-2.471775049831080935e+02
-1.676218729999999937e+02,-1.463105485000000101e+02,-2.468650049774774686e+02
-1.676218729999999937e+02,-1.463105485000000101e+02,-2.437400049211711632e+02
-1.676218729999999937e+02,-1.459882829999999956e+02,-2.434275049155405384e+02
-1.676218729999999937e+02,-1.456660175000000095e+02,-2.481150049999999965e+02
-1.679441385000000082e+02,-1.453437519999999950e+02,-2.468650049774774686e+02
-1.676218729999999937e+02,-1.453437519999999950e+02,-2.471775049831080935e+02
-1.676218729999999937e+02,-1.456660175000000095e+02,-2.431150049099099135e+02
-1.676218729999999937e+02,-1.456660175000000095e+02,-2.424900048986486354e+02
-1.679441385000000082e+02,-1.453437519999999950e+02,-2.424900048986486354e+02
-1.676218729999999937e+02,-1.453437519999999950e+02,-2.421775048930180105e+02
-1.679441385000000082e+02,-1.446992209999999943e+02,-2.468650049774774686e+02
-1.676218729999999937e+02,-1.446992209999999943e+02,-2.471775049831080935e+02
-1.676218729999999937e+02,-1.446992209999999943e+02,-2.421775048930180105e+02
-1.679441385000000082e+02,-1.440546899999999937e+02,-2.468650049774774686e+02
-1.676218729999999937e+02,-1.440546899999999937e+02,-2.471775049831080935e+02
-1.676218729999999937e+02,-1.443769555000000082e+02,-2.418650048873873857e+02
-1.679441385000000082e+02,-1.440546899999999937e+02,-2.418650048873873857e+02
-1.676218729999999937e+02,-1.440546899999999937e+02,-2.415525048817567608e+02
-1.679441385000000082e+02,-1.434101589999999931e+02,-2.468650049774774686e+02
-1.676218729999999937e+02,-1.434101589999999931e+02,-2.471775049831080935e+02
-1.679441385000000082e+02,-1.434101589999999931e+02,-2.449900049436936911e+02
-1.676218729999999937e+02,-1.434101589999999931e+02,-2.415525048817567608e+02
-1.679441385000000082e+02,-1.427656279999999924e+02,-2.468650049774774686e+02
-1.676218729999999937e+02,-1.427656279999999924e+02,-2.471775049831080935e+02
-1.679441385000000082e+02,-1.427656279999999924e+02,-2.462400049662162189e+02
-1.679441385000000082e+02,-1.427656279999999924e+02,-2.449900049436936911e+02
-1.676218729999999937e+02,-1.430878935000000070e+02,-2.418650048873873857e+02
-1.676218729999999937e+02,-1.427656279999999924e+02,-2.421775048930180105e+02
-1.679441385000000082e+02,-1.421210969999999918e+02,-2.468650049774774686e+02
-1.676218729999999937e+02,-1.421210969999999918e+02,-2.471775049831080935e+02
-1.679441385000000082e+02,-1.421210969999999918e+02,-2.462400049662162189e+02
-1.679441385000000082e+02,-1.421210969999999918e+02,-2.449900049436936911e+02
-1.676218729999999937e+02,-1.421210969999999918e+02,-2.421775048930180105e+02
-1.676218729999999937e+02,-1.417988315000000057e+02,-2.468650049774774686e+02
-1.679441385000000082e+02,-1.414765659999999912e+02,-2.462400049662162189e+02
-1.676218729999999937e+02,-1.414765659999999912e+02,-2.465525049718468438e+02
-1.676218729999999937e+02,-1.417988315000000057e+02,-2.456150049549549408e+02
-1.676218729999999937e+02,-1.414765659999999912e+02,-2.459275049605855941e+02
-1.676218729999999937e+02,-1.417988315000000057e+02,-2.449900049436936911e+02
-1.676218729999999937e+02,-1.414765659999999912e+02,-2.446775049380630662e+02
-1.679441385000000082e+02,-1.414765659999999912e+02,-2.437400049211711632e+02
-1.676218729999999937e+02,-1.414765659999999912e+02,-2.434275049155405384e+02
-1.676218729999999937e+02,-1.417988315000000057e+02,-2.431150049099099135e+02
-1.676218729999999937e+02,-1.417988315000000057e+02,-2.424900048986486354e+02
-1.676218729999999937e+02,-1.411543005000000051e+02,-2.462400049662162189e+02
-1.676218729999999937e+02,-1.408320349999999905e+02,-2.446775049380630662e+02
-1.676218729999999937e+02,-1.411543005000000051e+02,-2.437400049211711632e+02
-1.676218729999999937e+02,-1.408320349999999905e+02,-2.440525049268017881e+02
-1.676218729999999937e+02,-1.401875039999999899e+02,-2.446775049380630662e+02
-1.676218729999999937e+02,-1.401875039999999899e+02,-2.440525049268017881e+02
-1.676218729999999937e+02,-1.398652385000000038e+02,-2.443650049324324414e+02
-1.672996075000000076e+02,-1.492109379999999987e+02,-2.456150049549549408e+02
-1.669773419999999930e+02,-1.492109379999999987e+02,-2.459275049605855941e+02
-1.669773419999999930e+02,-1.495332035000000133e+02,-2.456150049549549408e+02
-1.669773419999999930e+02,-1.492109379999999987e+02,-2.453025049493243159e+02
-1.669773419999999930e+02,-1.485664069999999981e+02,-2.459275049605855941e+02
-1.669773419999999930e+02,-1.485664069999999981e+02,-2.453025049493243159e+02
-1.672996075000000076e+02,-1.485664069999999981e+02,-2.443650049324324414e+02
-1.669773419999999930e+02,-1.485664069999999981e+02,-2.446775049380630662e+02
-1.669773419999999930e+02,-1.488886725000000126e+02,-2.443650049324324414e+02
-1.669773419999999930e+02,-1.485664069999999981e+02,-2.440525049268017881e+02
-1.672996075000000076e+02,-1.479218759999999975e+02,-2.462400049662162189e+02
-1.669773419999999930e+02,-1.479218759999999975e+02,-2.465525049718468438e+02
-1.669773419999999930e+02,-1.482441415000000120e+02,-2.462400049662162189e+02
-1.669773419999999930e+02,-1.479218759999999975e+02,-2.453025049493243159e+02
-1.669773419999999930e+02,-1.479218759999999975e+02,-2.446775049380630662e+02
-1.669773419999999930e+02,-1.479218759999999975e+02,-2.440525049268017881e+02
-1.669773419999999930e+02,-1.475996105000000114e+02,-2.481150049999999965e+02
-1.669773419999999930e+02,-1.472773449999999968e+02,-2.478025049943693716e+02
-1.672996075000000076e+02,-1.472773449999999968e+02,-2.468650049774774686e+02
-1.669773419999999930e+02,-1.472773449999999968e+02,-2.471775049831080935e+02
-1.669773419999999930e+02,-1.475996105000000114e+02,-2.468650049774774686e+02
-1.669773419999999930e+02,-1.475996105000000114e+02,-2.449900049436936911e+02
-1.672996075000000076e+02,-1.472773449999999968e+02,-2.449900049436936911e+02
-1.669773419999999930e+02,-1.472773449999999968e+02,-2.440525049268017881e+02
-1.669773419999999930e+02,-1.466328139999999962e+02,-2.478025049943693716e+02
-1.672996075000000076e+02,-1.466328139999999962e+02,-2.468650049774774686e+02
-1.669773419999999930e+02,-1.466328139999999962e+02,-2.471775049831080935e+02
-1.669773419999999930e+02,-1.469550795000000107e+02,-2.437400049211711632e+02
-1.672996075000000076e+02,-1.466328139999999962e+02,-2.437400049211711632e+02
-1.669773419999999930e+02,-1.469550795000000107e+02,-2.431150049099099135e+02
-1.672996075000000076e+02,-1.466328139999999962e+02,-2.431150049099099135e+02
-1.669773419999999930e+02,-1.466328139999999962e+02,-2.428025049042792887e+02
-1.669773419999999930e+02,-1.459882829999999956e+02,-2.478025049943693716e+02
-1.669773419999999930e+02,-1.459882829999999956e+02,-2.471775049831080935e+02
-1.672996075000000076e+02,-1.459882829999999956e+02,-2.431150049099099135e+02
-1.669773419999999930e+02,-1.459882829999999956e+02,-2.428025049042792887e+02
-1.669773419999999930e+02,-1.453437519999999950e+02,-2.478025049943693716e+02
-1.672996075000000076e+02,-1.453437519999999950e+02,-2.481150049999999965e+02
-1.669773419999999930e+02,-1.453437519999999950e+02,-2.471775049831080935e+02
-1.669773419999999930e+02,-1.456660175000000095e+02,-2.424900048986486354e+02
-1.669773419999999930e+02,-1.453437519999999950e+02,-2.421775048930180105e+02
-1.669773419999999930e+02,-1.450214865000000088e+02,-2.481150049999999965e+02
-1.669773419999999930e+02,-1.446992209999999943e+02,-2.471775049831080935e+02
-1.669773419999999930e+02,-1.450214865000000088e+02,-2.418650048873873857e+02
-1.672996075000000076e+02,-1.446992209999999943e+02,-2.418650048873873857e+02
-1.669773419999999930e+02,-1.450214865000000088e+02,-2.412400048761261360e+02
-1.672996075000000076e+02,-1.446992209999999943e+02,-2.412400048761261360e+02
-1.669773419999999930e+02,-1.446992209999999943e+02,-2.409275048704954827e+02
-1.669773419999999930e+02,-1.440546899999999937e+02,-2.471775049831080935e+02
-1.669773419999999930e+02,-1.443769555000000082e+02,-2.412400048761261360e+02
-1.669773419999999930e+02,-1.440546899999999937e+02,-2.415525048817567608e+02
-1.669773419999999930e+02,-1.434101589999999931e+02,-2.471775049831080935e+02
-1.669773419999999930e+02,-1.434101589999999931e+02,-2.415525048817567608e+02
-1.669773419999999930e+02,-1.427656279999999924e+02,-2.471775049831080935e+02
-1.669773419999999930e+02,-1.430878935000000070e+02,-2.418650048873873857e+02
-1.669773419999999930e+02,-1.427656279999999924e+02,-2.421775048930180105e+02
-1.669773419999999930e+02,-1.421210969999999918e+02,-2.471775049831080935e+02
-1.669773419999999930e+02,-1.421210969999999918e+02,-2.421775048930180105e+02
-1.672996075000000076e+02,-1.414765659999999912e+02,-2.468650049774774686e+02
-1.669773419999999930e+02,-1.414765659999999912e+02,-2.471775049831080935e+02
-1.672996075000000076e+02,-1.414765659999999912e+02,-2.456150049549549408e+02
-1.672996075000000076e+02,-1.414765659999999912e+02,-2.449900049436936911e+02
-1.669773419999999930e+02,-1.417988315000000057e+02,-2.431150049099099135e+02
-1.669773419999999930e+02,-1.414765659999999912e+02,-2.434275049155405384e+02
-1.669773419999999930e+02,-1.417988315000000057e+02,-2.424900048986486354e+02
-1.669773419999999930e+02,-1.411543005000000051e+02,-2.468650049774774686e+02
-1.672996075000000076e+02,-1.408320349999999905e+02,-2.462400049662162189e+02
-1.669773419999999930e+02,-1.408320349999999905e+02,-2.465525049718468438e+02
-1.672996075000000076e+02,-1.408320349999999905e+02,-2.456150049549549408e+02
-1.672996075000000076e+02,-1.408320349999999905e+02,-2.449900049436936911e+02
-1.672996075000000076e+02,-1.408320349999999905e+02,-2.437400049211711632e+02
-1.669773419999999930e+02,-1.408320349999999905e+02,-2.434275049155405384e+02
-1.669773419999999930e+02,-1.405097695000000044e+02,-2.462400049662162189e+02
-1.669773419999999930e+02,-1.405097695000000044e+02,-2.456150049549549408e+02
-1.669773419999999930e+02,-1.405097695000000044e+02,-2.449900049436936911e+02
-1.669773419999999930e+02,-1.401875039999999899e+02,-2.446775049380630662e+02
-1.669773419999999930e+02,-1.405097695000000044e+02,-2.437400049211711632e+02
-1.669773419999999930e+02,-1.401875039999999899e+02,-2.440525049268017881e+02
-1.669773419999999930e+02,-1.398652385000000038e+02,-2.443650049324324414e+02
-1.663328109999999924e+02,-1.492109379999999987e+02,-2.459275049605855941e+02
-1.663328109999999924e+02,-1.495332035000000133e+02,-2.456150049549549408e+02
-1.663328109999999924e+02,-1.492109379999999987e+02,-2.453025049493243159e+02
-1.666550765000000069e+02,-1.492109379999999987e+02,-2.443650049324324414e+02
-1.663328109999999924e+02,-1.492109379999999987e+02,-2.446775049380630662e+02
-1.663328109999999924e+02,-1.495332035000000133e+02,-2.443650049324324414e+02
-1.663328109999999924e+02,-1.492109379999999987e+02,-2.440525049268017881e+02
-1.666550765000000069e+02,-1.485664069999999981e+02,-2.462400049662162189e+02
-1.663328109999999924e+02,-1.485664069999999981e+02,-2.465525049718468438e+02
-1.663328109999999924e+02,-1.488886725000000126e+02,-2.462400049662162189e+02
-1.663328109999999924e+02,-1.485664069999999981e+02,-2.453025049493243159e+02
-1.663328109999999924e+02,-1.485664069999999981e+02,-2.446775049380630662e+02
-1.663328109999999924e+02,-1.485664069999999981e+02,-2.440525049268017881e+02
-1.663328109999999924e+02,-1.482441415000000120e+02,-2.481150049999999965e+02
-1.663328109999999924e+02,-1.479218759999999975e+02,-2.478025049943693716e+02
-1.666550765000000069e+02,-1.479218759999999975e+02,-2.481150049999999965e+02
-1.663328109999999924e+02,-1.479218759999999975e+02,-2.465525049718468438e+02
-1.663328109999999924e+02,-1.482441415000000120e+02,-2.449900049436936911e+02
-1.666550765000000069e+02,-1.479218759999999975e+02,-2.449900049436936911e+02
-1.663328109999999924e+02,-1.482441415000000120e+02,-2.437400049211711632e+02
-1.666550765000000069e+02,-1.479218759999999975e+02,-2.437400049211711632e+02
-1.663328109999999924e+02,-1.479218759999999975e+02,-2.434275049155405384e+02
-1.663328109999999924e+02,-1.472773449999999968e+02,-2.478025049943693716e+02
-1.663328109999999924e+02,-1.472773449999999968e+02,-2.471775049831080935e+02
-1.663328109999999924e+02,-1.475996105000000114e+02,-2.468650049774774686e+02
-1.666550765000000069e+02,-1.472773449999999968e+02,-2.437400049211711632e+02
-1.663328109999999924e+02,-1.475996105000000114e+02,-2.431150049099099135e+02
-1.666550765000000069e+02,-1.472773449999999968e+02,-2.431150049099099135e+02
-1.663328109999999924e+02,-1.472773449999999968e+02,-2.428025049042792887e+02
-1.663328109999999924e+02,-1.466328139999999962e+02,-2.478025049943693716e+02
-1.663328109999999924e+02,-1.466328139999999962e+02,-2.471775049831080935e+02
-1.663328109999999924e+02,-1.466328139999999962e+02,-2.428025049042792887e+02
-1.663328109999999924e+02,-1.459882829999999956e+02,-2.478025049943693716e+02
-1.663328109999999924e+02,-1.459882829999999956e+02,-2.471775049831080935e+02
-1.663328109999999924e+02,-1.459882829999999956e+02,-2.428025049042792887e+02
-1.663328109999999924e+02,-1.453437519999999950e+02,-2.478025049943693716e+02
-1.663328109999999924e+02,-1.453437519999999950e+02,-2.471775049831080935e+02
-1.663328109999999924e+02,-1.456660175000000095e+02,-2.424900048986486354e+02
-1.663328109999999924e+02,-1.456660175000000095e+02,-2.418650048873873857e+02
-1.666550765000000069e+02,-1.453437519999999950e+02,-2.418650048873873857e+02
-1.663328109999999924e+02,-1.456660175000000095e+02,-2.412400048761261360e+02
-1.666550765000000069e+02,-1.453437519999999950e+02,-2.412400048761261360e+02
-1.663328109999999924e+02,-1.456660175000000095e+02,-2.406150048648648578e+02
-1.666550765000000069e+02,-1.453437519999999950e+02,-2.406150048648648578e+02
-1.663328109999999924e+02,-1.450214865000000088e+02,-2.481150049999999965e+02
-1.663328109999999924e+02,-1.446992209999999943e+02,-2.471775049831080935e+02
-1.666550765000000069e+02,-1.446992209999999943e+02,-2.406150048648648578e+02
-1.663328109999999924e+02,-1.440546899999999937e+02,-2.471775049831080935e+02
-1.663328109999999924e+02,-1.443769555000000082e+02,-2.412400048761261360e+02
-1.663328109999999924e+02,-1.440546899999999937e+02,-2.415525048817567608e+02
-1.663328109999999924e+02,-1.443769555000000082e+02,-2.406150048648648578e+02
-1.663328109999999924e+02,-1.434101589999999931e+02,-2.471775049831080935e+02
-1.663328109999999924e+02,-1.434101589999999931e+02,-2.415525048817567608e+02
-1.663328109999999924e+02,-1.427656279999999924e+02,-2.471775049831080935e+02
-1.666550765000000069e+02,-1.427656279999999924e+02,-2.418650048873873857e+02
-1.663328109999999924e+02,-1.427656279999999924e+02,-2.415525048817567608e+02
-1.663328109999999924e+02,-1.421210969999999918e+02,-2.471775049831080935e+02
-1.663328109999999924e+02,-1.424433625000000063e+02,-2.418650048873873857e+02
-1.663328109999999924e+02,-1.421210969999999918e+02,-2.421775048930180105e+02
-1.663328109999999924e+02,-1.414765659999999912e+02,-2.471775049831080935e+02
-1.666550765000000069e+02,-1.414765659999999912e+02,-2.431150049099099135e+02
-1.666550765000000069e+02,-1.414765659999999912e+02,-2.424900048986486354e+02
-1.663328109999999924e+02,-1.414765659999999912e+02,-2.421775048930180105e+02
-1.663328109999999924e+02,-1.411543005000000051e+02,-2.468650049774774686e+02
-1.663328109999999924e+02,-1.408320349999999905e+02,-2.465525049718468438e+02
-1.663328109999999924e+02,-1.411543005000000051e+02,-2.431150049099099135e+02
-1.663328109999999924e+02,-1.408320349999999905e+02,-2.434275049155405384e+02
-1.663328109999999924e+02,-1.411543005000000051e+02,-2.424900048986486354e+02
-1.663328109999999924e+02,-1.405097695000000044e+02,-2.462400049662162189e+02
-1.666550765000000069e+02,-1.401875039999999899e+02,-2.456150049549549408e+02
-1.663328109999999924e+02,-1.401875039999999899e+02,-2.459275049605855941e+02
-1.663328109999999924e+02,-1.401875039999999899e+02,-2.453025049493243159e+02
-1.663328109999999924e+02,-1.405097695000000044e+02,-2.449900049436936911e+02
-1.663328109999999924e+02,-1.401875039999999899e+02,-2.446775049380630662e+02
-1.663328109999999924e+02,-1.405097695000000044e+02,-2.437400049211711632e+02
-1.663328109999999924e+02,-1.401875039999999899e+02,-2.440525049268017881e+02
-1.663328109999999924e+02,-1.398652385000000038e+02,-2.456150049549549408e+02
-1.663328109999999924e+02,-1.398652385000000038e+02,-2.443650049324324414e+02
-1.660105455000000063e+02,-1.498554689999999994e+02,-2.443650049324324414e+02
-1.656882799999999918e+02,-1.498554689999999994e+02,-2.446775049380630662e+02
-1.656882799999999918e+02,-1.501777345000000139e+02,-2.443650049324324414e+02
-1.656882799999999918e+02,-1.498554689999999994e+02,-2.440525049268017881e+02
-1.656882799999999918e+02,-1.492109379999999987e+02,-2.459275049605855941e+02
-1.656882799999999918e+02,-1.495332035000000133e+02,-2.456150049549549408e+02
-1.656882799999999918e+02,-1.492109379999999987e+02,-2.453025049493243159e+02
-1.656882799999999918e+02,-1.492109379999999987e+02,-2.446775049380630662e+02
-1.656882799999999918e+02,-1.492109379999999987e+02,-2.440525049268017881e+02
-1.660105455000000063e+02,-1.485664069999999981e+02,-2.462400049662162189e+02
-1.656882799999999918e+02,-1.485664069999999981e+02,-2.459275049605855941e+02
-1.656882799999999918e+02,-1.485664069999999981e+02,-2.453025049493243159e+02
-1.656882799999999918e+02,-1.485664069999999981e+02,-2.446775049380630662e+02
-1.656882799999999918e+02,-1.488886725000000126e+02,-2.437400049211711632e+02
-1.660105455000000063e+02,-1.485664069999999981e+02,-2.437400049211711632e+02
-1.656882799999999918e+02,-1.485664069999999981e+02,-2.434275049155405384e+02
-1.656882799999999918e+02,-1.482441415000000120e+02,-2.481150049999999965e+02
-1.656882799999999918e+02,-1.479218759999999975e+02,-2.478025049943693716e+02
-1.656882799999999918e+02,-1.479218759999999975e+02,-2.465525049718468438e+02
-1.656882799999999918e+02,-1.482441415000000120e+02,-2.462400049662162189e+02
-1.656882799999999918e+02,-1.482441415000000120e+02,-2.449900049436936911e+02
-1.656882799999999918e+02,-1.479218759999999975e+02,-2.434275049155405384e+02
-1.656882799999999918e+02,-1.472773449999999968e+02,-2.478025049943693716e+02
-1.656882799999999918e+02,-1.472773449999999968e+02,-2.471775049831080935e+02
-1.656882799999999918e+02,-1.475996105000000114e+02,-2.468650049774774686e+02
-1.656882799999999918e+02,-1.475996105000000114e+02,-2.431150049099099135e+02
-1.656882799999999918e+02,-1.472773449999999968e+02,-2.428025049042792887e+02
-1.656882799999999918e+02,-1.466328139999999962e+02,-2.478025049943693716e+02
-1.656882799999999918e+02,-1.466328139999999962e+02,-2.471775049831080935e+02
-1.656882799999999918e+02,-1.469550795000000107e+02,-2.424900048986486354e+02
-1.660105455000000063e+02,-1.466328139999999962e+02,-2.424900048986486354e+02
-1.656882799999999918e+02,-1.466328139999999962e+02,-2.421775048930180105e+02
-1.656882799999999918e+02,-1.463105485000000101e+02,-2.474900049887387468e+02
-1.660105455000000063e+02,-1.459882829999999956e+02,-2.474900049887387468e+02
-1.660105455000000063e+02,-1.459882829999999956e+02,-2.424900048986486354e+02
-1.656882799999999918e+02,-1.463105485000000101e+02,-2.418650048873873857e+02
-1.660105455000000063e+02,-1.459882829999999956e+02,-2.418650048873873857e+02
-1.656882799999999918e+02,-1.459882829999999956e+02,-2.415525048817567608e+02
-1.660105455000000063e+02,-1.453437519999999950e+02,-2.474900049887387468e+02
-1.656882799999999918e+02,-1.456660175000000095e+02,-2.412400048761261360e+02
-1.656882799999999918e+02,-1.456660175000000095e+02,-2.406150048648648578e+02
-1.656882799999999918e+02,-1.450214865000000088e+02,-2.474900049887387468e+02
-1.656882799999999918e+02,-1.450214865000000088e+02,-2.481150049999999965e+02
-1.656882799999999918e+02,-1.446992209999999943e+02,-2.471775049831080935e+02
-1.656882799999999918e+02,-1.440546899999999937e+02,-2.471775049831080935e+02
-1.656882799999999918e+02,-1.443769555000000082e+02,-2.412400048761261360e+02
-1.656882799999999918e+02,-1.440546899999999937e+02,-2.415525048817567608e+02
-1.656882799999999918e+02,-1.443769555000000082e+02,-2.406150048648648578e+02
-1.656882799999999918e+02,-1.434101589999999931e+02,-2.471775049831080935e+02
-1.656882799999999918e+02,-1.434101589999999931e+02,-2.415525048817567608e+02
-1.656882799999999918e+02,-1.427656279999999924e+02,-2.471775049831080935e+02
-1.656882799999999918e+02,-1.427656279999999924e+02,-2.415525048817567608e+02
-1.656882799999999918e+02,-1.421210969999999918e+02,-2.471775049831080935e+02
-1.656882799999999918e+02,-1.424433625000000063e+02,-2.418650048873873857e+02
-1.656882799999999918e+02,-1.421210969999999918e+02,-2.421775048930180105e+02
-1.656882799999999918e+02,-1.414765659999999912e+02,-2.471775049831080935e+02
-1.656882799999999918e+02,-1.414765659999999912e+02,-2.421775048930180105e+02
-1.656882799999999918e+02,-1.411543005000000051e+02,-2.468650049774774686e+02
-1.656882799999999918e+02,-1.408320349999999905e+02,-2.465525049718468438e+02
-1.660105455000000063e+02,-1.408320349999999905e+02,-2.431150049099099135e+02
-1.656882799999999918e+02,-1.408320349999999905e+02,-2.428025049042792887e+02
-1.656882799999999918e+02,-1.411543005000000051e+02,-2.424900048986486354e+02
-1.656882799999999918e+02,-1.405097695000000044e+02,-2.462400049662162189e+02
-1.656882799999999918e+02,-1.401875039999999899e+02,-2.459275049605855941e+02
-1.656882799999999918e+02,-1.405097695000000044e+02,-2.449900049436936911e+02
-1.656882799999999918e+02,-1.401875039999999899e+02,-2.453025049493243159e+02
-1.656882799999999918e+02,-1.401875039999999899e+02,-2.446775049380630662e+02
-1.656882799999999918e+02,-1.405097695000000044e+02,-2.437400049211711632e+02
-1.656882799999999918e+02,-1.401875039999999899e+02,-2.440525049268017881e+02
-1.656882799999999918e+02,-1.405097695000000044e+02,-2.431150049099099135e+02
-1.656882799999999918e+02,-1.398652385000000038e+02,-2.456150049549549408e+02
-1.656882799999999918e+02,-1.398652385000000038e+02,-2.443650049324324414e+02
-1.650437489999999912e+02,-1.498554689999999994e+02,-2.446775049380630662e+02
-1.650437489999999912e+02,-1.501777345000000139e+02,-2.443650049324324414e+02
-1.650437489999999912e+02,-1.498554689999999994e+02,-2.440525049268017881e+02
-1.650437489999999912e+02,-1.492109379999999987e+02,-2.459275049605855941e+02
-1.650437489999999912e+02,-1.495332035000000133e+02,-2.456150049549549408e+02
-1.650437489999999912e+02,-1.492109379999999987e+02,-2.453025049493243159e+02
-1.650437489999999912e+02,-1.492109379999999987e+02,-2.446775049380630662e+02
-1.650437489999999912e+02,-1.492109379999999987e+02,-2.440525049268017881e+02
-1.650437489999999912e+02,-1.485664069999999981e+02,-2.459275049605855941e+02
-1.650437489999999912e+02,-1.488886725000000126e+02,-2.449900049436936911e+02
-1.653660145000000057e+02,-1.485664069999999981e+02,-2.449900049436936911e+02
-1.650437489999999912e+02,-1.488886725000000126e+02,-2.437400049211711632e+02
-1.650437489999999912e+02,-1.485664069999999981e+02,-2.434275049155405384e+02
-1.653660145000000057e+02,-1.479218759999999975e+02,-2.481150049999999965e+02
-1.650437489999999912e+02,-1.479218759999999975e+02,-2.465525049718468438e+02
-1.650437489999999912e+02,-1.482441415000000120e+02,-2.462400049662162189e+02
-1.650437489999999912e+02,-1.482441415000000120e+02,-2.431150049099099135e+02
-1.653660145000000057e+02,-1.479218759999999975e+02,-2.431150049099099135e+02
-1.650437489999999912e+02,-1.479218759999999975e+02,-2.428025049042792887e+02
-1.650437489999999912e+02,-1.475996105000000114e+02,-2.481150049999999965e+02
-1.650437489999999912e+02,-1.472773449999999968e+02,-2.478025049943693716e+02
-1.650437489999999912e+02,-1.472773449999999968e+02,-2.471775049831080935e+02
-1.650437489999999912e+02,-1.475996105000000114e+02,-2.468650049774774686e+02
-1.650437489999999912e+02,-1.472773449999999968e+02,-2.428025049042792887e+02
-1.650437489999999912e+02,-1.469550795000000107e+02,-2.474900049887387468e+02
-1.653660145000000057e+02,-1.466328139999999962e+02,-2.474900049887387468e+02
-1.650437489999999912e+02,-1.469550795000000107e+02,-2.424900048986486354e+02
-1.650437489999999912e+02,-1.466328139999999962e+02,-2.421775048930180105e+02
-1.650437489999999912e+02,-1.463105485000000101e+02,-2.418650048873873857e+02
-1.650437489999999912e+02,-1.463105485000000101e+02,-2.412400048761261360e+02
-1.653660145000000057e+02,-1.459882829999999956e+02,-2.412400048761261360e+02
-1.650437489999999912e+02,-1.459882829999999956e+02,-2.409275048704954827e+02
-1.650437489999999912e+02,-1.456660175000000095e+02,-2.406150048648648578e+02
-1.650437489999999912e+02,-1.450214865000000088e+02,-2.474900049887387468e+02
-1.650437489999999912e+02,-1.450214865000000088e+02,-2.481150049999999965e+02
-1.650437489999999912e+02,-1.446992209999999943e+02,-2.471775049831080935e+02
-1.650437489999999912e+02,-1.440546899999999937e+02,-2.471775049831080935e+02
-1.650437489999999912e+02,-1.443769555000000082e+02,-2.412400048761261360e+02
-1.650437489999999912e+02,-1.440546899999999937e+02,-2.415525048817567608e+02
-1.650437489999999912e+02,-1.443769555000000082e+02,-2.406150048648648578e+02
-1.650437489999999912e+02,-1.434101589999999931e+02,-2.471775049831080935e+02
-1.650437489999999912e+02,-1.434101589999999931e+02,-2.415525048817567608e+02
-1.650437489999999912e+02,-1.427656279999999924e+02,-2.471775049831080935e+02
-1.650437489999999912e+02,-1.427656279999999924e+02,-2.415525048817567608e+02
-1.650437489999999912e+02,-1.421210969999999918e+02,-2.471775049831080935e+02
-1.650437489999999912e+02,-1.424433625000000063e+02,-2.418650048873873857e+02
-1.650437489999999912e+02,-1.421210969999999918e+02,-2.421775048930180105e+02
-1.650437489999999912e+02,-1.417988315000000057e+02,-2.468650049774774686e+02
-1.653660145000000057e+02,-1.414765659999999912e+02,-2.468650049774774686e+02
-1.650437489999999912e+02,-1.414765659999999912e+02,-2.465525049718468438e+02
-1.650437489999999912e+02,-1.414765659999999912e+02,-2.421775048930180105e+02
-1.650437489999999912e+02,-1.408320349999999905e+02,-2.465525049718468438e+02
-1.653660145000000057e+02,-1.408320349999999905e+02,-2.437400049211711632e+02
-1.650437489999999912e+02,-1.411543005000000051e+02,-2.437400049211711632e+02
-1.650437489999999912e+02,-1.408320349999999905e+02,-2.440525049268017881e+02
-1.650437489999999912e+02,-1.408320349999999905e+02,-2.434275049155405384e+02
-1.650437489999999912e+02,-1.411543005000000051e+02,-2.424900048986486354e+02
-1.650437489999999912e+02,-1.408320349999999905e+02,-2.428025049042792887e+02
-1.650437489999999912e+02,-1.405097695000000044e+02,-2.462400049662162189e+02
-1.650437489999999912e+02,-1.401875039999999899e+02,-2.459275049605855941e+02
-1.650437489999999912e+02,-1.405097695000000044e+02,-2.449900049436936911e+02
-1.650437489999999912e+02,-1.401875039999999899e+02,-2.453025049493243159e+02
-1.650437489999999912e+02,-1.401875039999999899e+02,-2.446775049380630662e+02
-1.650437489999999912e+02,-1.401875039999999899e+02,-2.440525049268017881e+02
-1.650437489999999912e+02,-1.405097695000000044e+02,-2.431150049099099135e+02
-1.650437489999999912e+02,-1.398652385000000038e+02,-2.456150049549549408e+02
-1.650437489999999912e+02,-1.398652385000000038e+02,-2.443650049324324414e+02
-1.643992179999999905e+02,-1.498554689999999994e+02,-2.446775049380630662e+02
-1.643992179999999905e+02,-1.501777345000000139e+02,-2.443650049324324414e+02
-1.643992179999999905e+02,-1.498554689999999994e+02,-2.440525049268017881e+02
-1.643992179999999905e+02,-1.492109379999999987e+02,-2.459275049605855941e+02
-1.643992179999999905e+02,-1.495332035000000133e+02,-2.456150049549549408e+02
-1.643992179999999905e+02,-1.492109379999999987e+02,-2.453025049493243159e+02
-1.643992179999999905e+02,-1.492109379999999987e+02,-2.446775049380630662e+02
-1.643992179999999905e+02,-1.492109379999999987e+02,-2.440525049268017881e+02
-1.643992179999999905e+02,-1.485664069999999981e+02,-2.459275049605855941e+02
-1.643992179999999905e+02,-1.488886725000000126e+02,-2.449900049436936911e+02
-1.643992179999999905e+02,-1.488886725000000126e+02,-2.437400049211711632e+02
-1.643992179999999905e+02,-1.488886725000000126e+02,-2.431150049099099135e+02
-1.647214835000000051e+02,-1.485664069999999981e+02,-2.431150049099099135e+02
-1.643992179999999905e+02,-1.485664069999999981e+02,-2.428025049042792887e+02
-1.647214835000000051e+02,-1.479218759999999975e+02,-2.462400049662162189e+02
-1.643992179999999905e+02,-1.479218759999999975e+02,-2.459275049605855941e+02
-1.643992179999999905e+02,-1.479218759999999975e+02,-2.428025049042792887e+02
-1.643992179999999905e+02,-1.475996105000000114e+02,-2.474900049887387468e+02
-1.647214835000000051e+02,-1.472773449999999968e+02,-2.481150049999999965e+02
-1.643992179999999905e+02,-1.472773449999999968e+02,-2.478025049943693716e+02
-1.647214835000000051e+02,-1.472773449999999968e+02,-2.474900049887387468e+02
-1.643992179999999905e+02,-1.475996105000000114e+02,-2.468650049774774686e+02
-1.643992179999999905e+02,-1.475996105000000114e+02,-2.462400049662162189e+02
-1.643992179999999905e+02,-1.475996105000000114e+02,-2.424900048986486354e+02
-1.647214835000000051e+02,-1.472773449999999968e+02,-2.424900048986486354e+02
-1.643992179999999905e+02,-1.472773449999999968e+02,-2.421775048930180105e+02
-1.643992179999999905e+02,-1.469550795000000107e+02,-2.481150049999999965e+02
-1.643992179999999905e+02,-1.466328139999999962e+02,-2.421775048930180105e+02
-1.643992179999999905e+02,-1.463105485000000101e+02,-2.418650048873873857e+02
-1.643992179999999905e+02,-1.463105485000000101e+02,-2.412400048761261360e+02
-1.643992179999999905e+02,-1.459882829999999956e+02,-2.409275048704954827e+02
-1.643992179999999905e+02,-1.456660175000000095e+02,-2.406150048648648578e+02
-1.643992179999999905e+02,-1.450214865000000088e+02,-2.474900049887387468e+02
-1.643992179999999905e+02,-1.450214865000000088e+02,-2.481150049999999965e+02
-1.643992179999999905e+02,-1.446992209999999943e+02,-2.471775049831080935e+02
-1.643992179999999905e+02,-1.440546899999999937e+02,-2.471775049831080935e+02
-1.643992179999999905e+02,-1.443769555000000082e+02,-2.412400048761261360e+02
-1.643992179999999905e+02,-1.440546899999999937e+02,-2.415525048817567608e+02
-1.643992179999999905e+02,-1.443769555000000082e+02,-2.406150048648648578e+02
-1.643992179999999905e+02,-1.434101589999999931e+02,-2.471775049831080935e+02
-1.643992179999999905e+02,-1.434101589999999931e+02,-2.415525048817567608e+02
-1.643992179999999905e+02,-1.430878935000000070e+02,-2.468650049774774686e+02
-1.647214835000000051e+02,-1.427656279999999924e+02,-2.468650049774774686e+02
-1.643992179999999905e+02,-1.427656279999999924e+02,-2.465525049718468438e+02
-1.643992179999999905e+02,-1.427656279999999924e+02,-2.415525048817567608e+02
-1.647214835000000051e+02,-1.421210969999999918e+02,-2.468650049774774686e+02
-1.643992179999999905e+02,-1.421210969999999918e+02,-2.465525049718468438e+02
-1.643992179999999905e+02,-1.424433625000000063e+02,-2.418650048873873857e+02
-1.643992179999999905e+02,-1.421210969999999918e+02,-2.421775048930180105e+02
-1.643992179999999905e+02,-1.414765659999999912e+02,-2.465525049718468438e+02
-1.647214835000000051e+02,-1.414765659999999912e+02,-2.437400049211711632e+02
-1.643992179999999905e+02,-1.417988315000000057e+02,-2.437400049211711632e+02
-1.643992179999999905e+02,-1.414765659999999912e+02,-2.440525049268017881e+02
-1.643992179999999905e+02,-1.414765659999999912e+02,-2.434275049155405384e+02
-1.643992179999999905e+02,-1.414765659999999912e+02,-2.421775048930180105e+02
-1.643992179999999905e+02,-1.408320349999999905e+02,-2.465525049718468438e+02
-1.643992179999999905e+02,-1.408320349999999905e+02,-2.440525049268017881e+02
-1.643992179999999905e+02,-1.408320349999999905e+02,-2.434275049155405384e+02
-1.643992179999999905e+02,-1.411543005000000051e+02,-2.424900048986486354e+02
-1.643992179999999905e+02,-1.408320349999999905e+02,-2.428025049042792887e+02
-1.643992179999999905e+02,-1.405097695000000044e+02,-2.462400049662162189e+02
-1.643992179999999905e+02,-1.401875039999999899e+02,-2.459275049605855941e+02
-1.643992179999999905e+02,-1.405097695000000044e+02,-2.449900049436936911e+02
-1.643992179999999905e+02,-1.401875039999999899e+02,-2.453025049493243159e+02
-1.643992179999999905e+02,-1.401875039999999899e+02,-2.446775049380630662e+02
-1.643992179999999905e+02,-1.401875039999999899e+02,-2.440525049268017881e+02
-1.643992179999999905e+02,-1.405097695000000044e+02,-2.431150049099099135e+02
-1.643992179999999905e+02,-1.398652385000000038e+02,-2.456150049549549408e+02
-1.643992179999999905e+02,-1.398652385000000038e+02,-2.443650049324324414e+02
-1.640769525000000044e+02,-1.498554689999999994e+02,-2.443650049324324414e+02
-1.637546869999999899e+02,-1.492109379999999987e+02,-2.459275049605855941e+02
-1.637546869999999899e+02,-1.495332035000000133e+02,-2.456150049549549408e+02
-1.637546869999999899e+02,-1.492109379999999987e+02,-2.453025049493243159e+02
-1.640769525000000044e+02,-1.492109379999999987e+02,-2.443650049324324414e+02
-1.637546869999999899e+02,-1.485664069999999981e+02,-2.459275049605855941e+02
-1.640769525000000044e+02,-1.485664069999999981e+02,-2.449900049436936911e+02
-1.637546869999999899e+02,-1.485664069999999981e+02,-2.453025049493243159e+02
-1.637546869999999899e+02,-1.485664069999999981e+02,-2.446775049380630662e+02
-1.637546869999999899e+02,-1.488886725000000126e+02,-2.443650049324324414e+02
-1.640769525000000044e+02,-1.485664069999999981e+02,-2.437400049211711632e+02
-1.637546869999999899e+02,-1.485664069999999981e+02,-2.440525049268017881e+02
-1.640769525000000044e+02,-1.485664069999999981e+02,-2.431150049099099135e+02
-1.637546869999999899e+02,-1.479218759999999975e+02,-2.459275049605855941e+02
-1.637546869999999899e+02,-1.482441415000000120e+02,-2.449900049436936911e+02
-1.637546869999999899e+02,-1.482441415000000120e+02,-2.437400049211711632e+02
-1.637546869999999899e+02,-1.482441415000000120e+02,-2.431150049099099135e+02
-1.637546869999999899e+02,-1.479218759999999975e+02,-2.428025049042792887e+02
-1.640769525000000044e+02,-1.472773449999999968e+02,-2.474900049887387468e+02
-1.637546869999999899e+02,-1.472773449999999968e+02,-2.471775049831080935e+02
-1.637546869999999899e+02,-1.475996105000000114e+02,-2.468650049774774686e+02
-1.640769525000000044e+02,-1.472773449999999968e+02,-2.462400049662162189e+02
-1.637546869999999899e+02,-1.472773449999999968e+02,-2.465525049718468438e+02
-1.637546869999999899e+02,-1.472773449999999968e+02,-2.459275049605855941e+02
-1.640769525000000044e+02,-1.472773449999999968e+02,-2.424900048986486354e+02
-1.637546869999999899e+02,-1.472773449999999968e+02,-2.428025049042792887e+02
-1.640769525000000044e+02,-1.466328139999999962e+02,-2.481150049999999965e+02
-1.640769525000000044e+02,-1.466328139999999962e+02,-2.474900049887387468e+02
-1.637546869999999899e+02,-1.466328139999999962e+02,-2.471775049831080935e+02
-1.640769525000000044e+02,-1.466328139999999962e+02,-2.462400049662162189e+02
-1.637546869999999899e+02,-1.466328139999999962e+02,-2.465525049718468438e+02
-1.637546869999999899e+02,-1.466328139999999962e+02,-2.459275049605855941e+02
-1.637546869999999899e+02,-1.469550795000000107e+02,-2.424900048986486354e+02
-1.637546869999999899e+02,-1.466328139999999962e+02,-2.421775048930180105e+02
-1.637546869999999899e+02,-1.463105485000000101e+02,-2.481150049999999965e+02
-1.637546869999999899e+02,-1.463105485000000101e+02,-2.474900049887387468e+02
-1.637546869999999899e+02,-1.463105485000000101e+02,-2.462400049662162189e+02
-1.640769525000000044e+02,-1.459882829999999956e+02,-2.418650048873873857e+02
-1.637546869999999899e+02,-1.459882829999999956e+02,-2.421775048930180105e+02
-1.640769525000000044e+02,-1.459882829999999956e+02,-2.412400048761261360e+02
-1.637546869999999899e+02,-1.456660175000000095e+02,-2.481150049999999965e+02
-1.640769525000000044e+02,-1.453437519999999950e+02,-2.481150049999999965e+02
-1.637546869999999899e+02,-1.453437519999999950e+02,-2.478025049943693716e+02
-1.637546869999999899e+02,-1.456660175000000095e+02,-2.418650048873873857e+02
-1.637546869999999899e+02,-1.456660175000000095e+02,-2.412400048761261360e+02
-1.640769525000000044e+02,-1.453437519999999950e+02,-2.406150048648648578e+02
-1.637546869999999899e+02,-1.453437519999999950e+02,-2.409275048704954827e+02
-1.637546869999999899e+02,-1.446992209999999943e+02,-2.478025049943693716e+02
-1.640769525000000044e+02,-1.446992209999999943e+02,-2.474900049887387468e+02
-1.640769525000000044e+02,-1.446992209999999943e+02,-2.406150048648648578e+02
-1.637546869999999899e+02,-1.446992209999999943e+02,-2.409275048704954827e+02
-1.640769525000000044e+02,-1.440546899999999937e+02,-2.474900049887387468e+02
-1.637546869999999899e+02,-1.440546899999999937e+02,-2.478025049943693716e+02
-1.637546869999999899e+02,-1.443769555000000082e+02,-2.412400048761261360e+02
-1.637546869999999899e+02,-1.440546899999999937e+02,-2.415525048817567608e+02
-1.637546869999999899e+02,-1.437324245000000076e+02,-2.474900049887387468e+02
-1.637546869999999899e+02,-1.434101589999999931e+02,-2.471775049831080935e+02
-1.637546869999999899e+02,-1.434101589999999931e+02,-2.415525048817567608e+02
-1.637546869999999899e+02,-1.430878935000000070e+02,-2.468650049774774686e+02
-1.637546869999999899e+02,-1.427656279999999924e+02,-2.465525049718468438e+02
-1.640769525000000044e+02,-1.427656279999999924e+02,-2.424900048986486354e+02
-1.637546869999999899e+02,-1.430878935000000070e+02,-2.424900048986486354e+02
-1.637546869999999899e+02,-1.427656279999999924e+02,-2.428025049042792887e+02
-1.637546869999999899e+02,-1.427656279999999924e+02,-2.421775048930180105e+02
-1.637546869999999899e+02,-1.427656279999999924e+02,-2.415525048817567608e+02
-1.637546869999999899e+02,-1.421210969999999918e+02,-2.465525049718468438e+02
-1.640769525000000044e+02,-1.421210969999999918e+02,-2.424900048986486354e+02
-1.637546869999999899e+02,-1.421210969999999918e+02,-2.428025049042792887e+02
-1.637546869999999899e+02,-1.424433625000000063e+02,-2.418650048873873857e+02
-1.637546869999999899e+02,-1.414765659999999912e+02,-2.465525049718468438e+02
-1.640769525000000044e+02,-1.414765659999999912e+02,-2.449900049436936911e+02
-1.637546869999999899e+02,-1.417988315000000057e+02,-2.449900049436936911e+02
-1.637546869999999899e+02,-1.414765659999999912e+02,-2.453025049493243159e+02
-1.637546869999999899e+02,-1.414765659999999912e+02,-2.446775049380630662e+02
-1.637546869999999899e+02,-1.417988315000000057e+02,-2.437400049211711632e+02
-1.637546869999999899e+02,-1.414765659999999912e+02,-2.440525049268017881e+02
-1.637546869999999899e+02,-1.414765659999999912e+02,-2.434275049155405384e+02
-1.640769525000000044e+02,-1.414765659999999912e+02,-2.424900048986486354e+02
-1.637546869999999899e+02,-1.414765659999999912e+02,-2.428025049042792887e+02
-1.637546869999999899e+02,-1.408320349999999905e+02,-2.465525049718468438e+02
-1.640769525000000044e+02,-1.408320349999999905e+02,-2.449900049436936911e+02
-1.637546869999999899e+02,-1.408320349999999905e+02,-2.453025049493243159e+02
-1.637546869999999899e+02,-1.408320349999999905e+02,-2.446775049380630662e+02
-1.637546869999999899e+02,-1.408320349999999905e+02,-2.440525049268017881e+02
-1.637546869999999899e+02,-1.411543005000000051e+02,-2.431150049099099135e+02
-1.640769525000000044e+02,-1.408320349999999905e+02,-2.431150049099099135e+02
-1.637546869999999899e+02,-1.405097695000000044e+02,-2.462400049662162189e+02
-1.637546869999999899e+02,-1.401875039999999899e+02,-2.459275049605855941e+02
-1.637546869999999899e+02,-1.401875039999999899e+02,-2.453025049493243159e+02
-1.637546869999999899e+02,-1.401875039999999899e+02,-2.446775049380630662e+02
-1.637546869999999899e+02,-1.401875039999999899e+02,-2.440525049268017881e+02
-1.637546869999999899e+02,-1.398652385000000038e+02,-2.456150049549549408e+02
-1.637546869999999899e+02,-1.398652385000000038e+02,-2.443650049324324414e+02
-1.631101559999999893e+02,-1.492109379999999987e+02,-2.459275049605855941e+02
-1.631101559999999893e+02,-1.495332035000000133e+02,-2.456150049549549408e+02
-1.631101559999999893e+02,-1.492109379999999987e+02,-2.453025049493243159e+02
-1.631101559999999893e+02,-1.485664069999999981e+02,-2.459275049605855941e+02
-1.631101559999999893e+02,-1.485664069999999981e+02,-2.453025049493243159e+02
-1.634324215000000038e+02,-1.485664069999999981e+02,-2.443650049324324414e+02
-1.631101559999999893e+02,-1.479218759999999975e+02,-2.459275049605855941e+02
-1.634324215000000038e+02,-1.479218759999999975e+02,-2.449900049436936911e+02
-1.631101559999999893e+02,-1.479218759999999975e+02,-2.453025049493243159e+02
-1.634324215000000038e+02,-1.479218759999999975e+02,-2.443650049324324414e+02
-1.634324215000000038e+02,-1.479218759999999975e+02,-2.437400049211711632e+02
-1.634324215000000038e+02,-1.479218759999999975e+02,-2.431150049099099135e+02
-1.631101559999999893e+02,-1.472773449999999968e+02,-2.471775049831080935e+02
-1.631101559999999893e+02,-1.475996105000000114e+02,-2.468650049774774686e+02
-1.631101559999999893e+02,-1.472773449999999968e+02,-2.465525049718468438e+02
-1.631101559999999893e+02,-1.472773449999999968e+02,-2.459275049605855941e+02
-1.634324215000000038e+02,-1.472773449999999968e+02,-2.449900049436936911e+02
-1.631101559999999893e+02,-1.472773449999999968e+02,-2.453025049493243159e+02
-1.631101559999999893e+02,-1.472773449999999968e+02,-2.446775049380630662e+02
-1.631101559999999893e+02,-1.475996105000000114e+02,-2.443650049324324414e+02
-1.631101559999999893e+02,-1.472773449999999968e+02,-2.440525049268017881e+02
-1.634324215000000038e+02,-1.472773449999999968e+02,-2.437400049211711632e+02
-1.634324215000000038e+02,-1.472773449999999968e+02,-2.431150049099099135e+02
-1.631101559999999893e+02,-1.466328139999999962e+02,-2.471775049831080935e+02
-1.631101559999999893e+02,-1.466328139999999962e+02,-2.465525049718468438e+02
-1.631101559999999893e+02,-1.466328139999999962e+02,-2.459275049605855941e+02
-1.631101559999999893e+02,-1.469550795000000107e+02,-2.449900049436936911e+02
-1.631101559999999893e+02,-1.469550795000000107e+02,-2.437400049211711632e+02
-1.631101559999999893e+02,-1.469550795000000107e+02,-2.431150049099099135e+02
-1.631101559999999893e+02,-1.469550795000000107e+02,-2.424900048986486354e+02
-1.631101559999999893e+02,-1.466328139999999962e+02,-2.421775048930180105e+02
-1.634324215000000038e+02,-1.459882829999999956e+02,-2.474900049887387468e+02
-1.634324215000000038e+02,-1.459882829999999956e+02,-2.481150049999999965e+02
-1.631101559999999893e+02,-1.459882829999999956e+02,-2.471775049831080935e+02
-1.631101559999999893e+02,-1.463105485000000101e+02,-2.462400049662162189e+02
-1.631101559999999893e+02,-1.459882829999999956e+02,-2.421775048930180105e+02
-1.631101559999999893e+02,-1.456660175000000095e+02,-2.474900049887387468e+02
-1.631101559999999893e+02,-1.453437519999999950e+02,-2.478025049943693716e+02
-1.631101559999999893e+02,-1.456660175000000095e+02,-2.418650048873873857e+02
-1.631101559999999893e+02,-1.456660175000000095e+02,-2.412400048761261360e+02
-1.631101559999999893e+02,-1.453437519999999950e+02,-2.409275048704954827e+02
-1.631101559999999893e+02,-1.446992209999999943e+02,-2.478025049943693716e+02
-1.631101559999999893e+02,-1.446992209999999943e+02,-2.409275048704954827e+02
-1.631101559999999893e+02,-1.440546899999999937e+02,-2.478025049943693716e+02
-1.634324215000000038e+02,-1.440546899999999937e+02,-2.412400048761261360e+02
-1.631101559999999893e+02,-1.440546899999999937e+02,-2.409275048704954827e+02
-1.634324215000000038e+02,-1.434101589999999931e+02,-2.474900049887387468e+02
-1.631101559999999893e+02,-1.434101589999999931e+02,-2.478025049943693716e+02
-1.634324215000000038e+02,-1.434101589999999931e+02,-2.418650048873873857e+02
-1.631101559999999893e+02,-1.437324245000000076e+02,-2.418650048873873857e+02
-1.631101559999999893e+02,-1.434101589999999931e+02,-2.421775048930180105e+02
-1.631101559999999893e+02,-1.437324245000000076e+02,-2.412400048761261360e+02
-1.631101559999999893e+02,-1.430878935000000070e+02,-2.474900049887387468e+02
-1.631101559999999893e+02,-1.430878935000000070e+02,-2.468650049774774686e+02
-1.631101559999999893e+02,-1.427656279999999924e+02,-2.465525049718468438e+02
-1.631101559999999893e+02,-1.430878935000000070e+02,-2.424900048986486354e+02
-1.631101559999999893e+02,-1.427656279999999924e+02,-2.428025049042792887e+02
-1.634324215000000038e+02,-1.427656279999999924e+02,-2.418650048873873857e+02
-1.631101559999999893e+02,-1.421210969999999918e+02,-2.465525049718468438e+02
-1.634324215000000038e+02,-1.421210969999999918e+02,-2.449900049436936911e+02
-1.631101559999999893e+02,-1.424433625000000063e+02,-2.449900049436936911e+02
-1.631101559999999893e+02,-1.421210969999999918e+02,-2.453025049493243159e+02
-1.631101559999999893e+02,-1.421210969999999918e+02,-2.446775049380630662e+02
-1.634324215000000038e+02,-1.421210969999999918e+02,-2.437400049211711632e+02
-1.631101559999999893e+02,-1.424433625000000063e+02,-2.437400049211711632e+02
-1.631101559999999893e+02,-1.421210969999999918e+02,-2.440525049268017881e+02
-1.631101559999999893e+02,-1.421210969999999918e+02,-2.434275049155405384e+02
-1.631101559999999893e+02,-1.421210969999999918e+02,-2.428025049042792887e+02
-1.631101559999999893e+02,-1.414765659999999912e+02,-2.465525049718468438e+02
-1.631101559999999893e+02,-1.414765659999999912e+02,-2.453025049493243159e+02
-1.631101559999999893e+02,-1.414765659999999912e+02,-2.446775049380630662e+02
-1.631101559999999893e+02,-1.414765659999999912e+02,-2.440525049268017881e+02
-1.634324215000000038e+02,-1.414765659999999912e+02,-2.431150049099099135e+02
-1.631101559999999893e+02,-1.417988315000000057e+02,-2.431150049099099135e+02
-1.631101559999999893e+02,-1.408320349999999905e+02,-2.465525049718468438e+02
-1.631101559999999893e+02,-1.408320349999999905e+02,-2.453025049493243159e+02
-1.631101559999999893e+02,-1.408320349999999905e+02,-2.446775049380630662e+02
-1.631101559999999893e+02,-1.408320349999999905e+02,-2.440525049268017881e+02
-1.631101559999999893e+02,-1.405097695000000044e+02,-2.462400049662162189e+02
-1.631101559999999893e+02,-1.401875039999999899e+02,-2.459275049605855941e+02
-1.631101559999999893e+02,-1.401875039999999899e+02,-2.453025049493243159e+02
-1.631101559999999893e+02,-1.405097695000000044e+02,-2.443650049324324414e+02
-1.634324215000000038e+02,-1.401875039999999899e+02,-2.443650049324324414e+02
-1.631101559999999893e+02,-1.398652385000000038e+02,-2.456150049549549408e+02
-1.627878905000000032e+02,-1.492109379999999987e+02,-2.456150049549549408e+02
-1.627878905000000032e+02,-1.485664069999999981e+02,-2.456150049549549408e+02
-1.627878905000000032e+02,-1.479218759999999975e+02,-2.456150049549549408e+02
-1.627878905000000032e+02,-1.472773449999999968e+02,-2.468650049774774686e+02
