-1.861453094999999962e+02,-1.523874969999999962e+02,-3.067500000000000000e+02
-1.857937469999999962e+02,-1.527390594999999962e+02,-3.042500000000000000e+02
-1.861453094999999962e+02,-1.523874969999999962e+02,-3.042500000000000000e+02
-1.857937469999999962e+02,-1.527390594999999962e+02,-3.067500000000000000e+02
-1.857937469999999962e+02,-1.523874969999999962e+02,-3.030000000000000000e+02
-1.857937469999999962e+02,-1.520359344999999962e+02,-3.067500000000000000e+02
-1.861453094999999962e+02,-1.516843719999999962e+02,-3.042500000000000000e+02
-1.857937469999999962e+02,-1.516843719999999962e+02,-3.055000000000000000e+02
-1.857937469999999962e+02,-1.516843719999999962e+02,-3.030000000000000000e+02
-1.857937469999999962e+02,-1.513328094999999962e+02,-3.042500000000000000e+02
-1.854421844999999962e+02,-1.530906219999999962e+02,-3.042500000000000000e+02
-1.850906219999999962e+02,-1.530906219999999962e+02,-3.055000000000000000e+02
-1.850906219999999962e+02,-1.534421844999999962e+02,-3.042500000000000000e+02
-1.850906219999999962e+02,-1.530906219999999962e+02,-3.030000000000000000e+02
-1.850906219999999962e+02,-1.527390594999999962e+02,-3.067500000000000000e+02
-1.850906219999999962e+02,-1.527390594999999962e+02,-3.017500000000000000e+02
-1.854421844999999962e+02,-1.523874969999999962e+02,-3.017500000000000000e+02
-1.850906219999999962e+02,-1.520359344999999962e+02,-3.067500000000000000e+02
-1.850906219999999962e+02,-1.516843719999999962e+02,-3.055000000000000000e+02
-1.854421844999999962e+02,-1.516843719999999962e+02,-3.017500000000000000e+02
-1.850906219999999962e+02,-1.513328094999999962e+02,-3.042500000000000000e+02
-1.850906219999999962e+02,-1.513328094999999962e+02,-3.017500000000000000e+02
-1.847390594999999962e+02,-1.530906219999999962e+02,-3.067500000000000000e+02
-1.843874969999999962e+02,-1.534421844999999962e+02,-3.067500000000000000e+02
-1.843874969999999962e+02,-1.534421844999999962e+02,-3.042500000000000000e+02
-1.843874969999999962e+02,-1.534421844999999962e+02,-3.017500000000000000e+02
-1.847390594999999962e+02,-1.530906219999999962e+02,-3.017500000000000000e+02
-1.843874969999999962e+02,-1.520359344999999962e+02,-3.067500000000000000e+02
-1.843874969999999962e+02,-1.516843719999999962e+02,-3.055000000000000000e+02
-1.843874969999999962e+02,-1.513328094999999962e+02,-3.042500000000000000e+02
-1.847390594999999962e+02,-1.509812469999999962e+02,-3.017500000000000000e+02
-1.843874969999999962e+02,-1.509812469999999962e+02,-3.030000000000000000e+02
-1.843874969999999962e+02,-1.506296844999999962e+02,-3.017500000000000000e+02
-1.840359344999999962e+02,-1.537937469999999962e+02,-3.042500000000000000e+02
-1.836843719999999962e+02,-1.537937469999999962e+02,-3.055000000000000000e+02
-1.836843719999999962e+02,-1.541453094999999962e+02,-3.042500000000000000e+02
-1.836843719999999962e+02,-1.537937469999999962e+02,-3.030000000000000000e+02
-1.836843719999999962e+02,-1.534421844999999962e+02,-3.067500000000000000e+02
-1.836843719999999962e+02,-1.534421844999999962e+02,-3.017500000000000000e+02
-1.836843719999999962e+02,-1.520359344999999962e+02,-3.067500000000000000e+02
-1.836843719999999962e+02,-1.516843719999999962e+02,-3.055000000000000000e+02
-1.836843719999999962e+02,-1.513328094999999962e+02,-3.042500000000000000e+02
-1.836843719999999962e+02,-1.509812469999999962e+02,-3.030000000000000000e+02
-1.836843719999999962e+02,-1.506296844999999962e+02,-3.017500000000000000e+02
-1.833328094999999962e+02,-1.537937469999999962e+02,-3.067500000000000000e+02
-1.829812469999999962e+02,-1.541453094999999962e+02,-3.067500000000000000e+02
-1.829812469999999962e+02,-1.541453094999999962e+02,-3.042500000000000000e+02
-1.829812469999999962e+02,-1.541453094999999962e+02,-3.017500000000000000e+02
-1.833328094999999962e+02,-1.537937469999999962e+02,-3.017500000000000000e+02
-1.833328094999999962e+02,-1.516843719999999962e+02,-3.067500000000000000e+02
-1.833328094999999962e+02,-1.509812469999999962e+02,-3.042500000000000000e+02
-1.829812469999999962e+02,-1.509812469999999962e+02,-3.055000000000000000e+02
-1.829812469999999962e+02,-1.513328094999999962e+02,-3.067500000000000000e+02
-1.829812469999999962e+02,-1.506296844999999962e+02,-3.042500000000000000e+02
-1.833328094999999962e+02,-1.502781219999999962e+02,-3.017500000000000000e+02
-1.829812469999999962e+02,-1.502781219999999962e+02,-3.030000000000000000e+02
-1.829812469999999962e+02,-1.499265594999999962e+02,-3.017500000000000000e+02
-1.826296844999999962e+02,-1.544968719999999962e+02,-3.042500000000000000e+02
-1.822781219999999962e+02,-1.544968719999999962e+02,-3.055000000000000000e+02
-1.822781219999999962e+02,-1.548484344999999962e+02,-3.042500000000000000e+02
-1.822781219999999962e+02,-1.548484344999999962e+02,-3.017500000000000000e+02
-1.826296844999999962e+02,-1.544968719999999962e+02,-3.017500000000000000e+02
-1.822781219999999962e+02,-1.541453094999999962e+02,-3.067500000000000000e+02
-1.826296844999999962e+02,-1.509812469999999962e+02,-3.067500000000000000e+02
-1.826296844999999962e+02,-1.502781219999999962e+02,-3.042500000000000000e+02
-1.822781219999999962e+02,-1.502781219999999962e+02,-3.055000000000000000e+02
-1.822781219999999962e+02,-1.506296844999999962e+02,-3.067500000000000000e+02
-1.822781219999999962e+02,-1.499265594999999962e+02,-3.042500000000000000e+02
-1.822781219999999962e+02,-1.499265594999999962e+02,-3.017500000000000000e+02
-1.815749969999999962e+02,-1.544968719999999962e+02,-3.055000000000000000e+02
-1.815749969999999962e+02,-1.548484344999999962e+02,-3.042500000000000000e+02
-1.815749969999999962e+02,-1.548484344999999962e+02,-3.017500000000000000e+02
-1.815749969999999962e+02,-1.541453094999999962e+02,-3.067500000000000000e+02
-1.815749969999999962e+02,-1.506296844999999962e+02,-3.067500000000000000e+02
-1.815749969999999962e+02,-1.502781219999999962e+02,-3.055000000000000000e+02
-1.815749969999999962e+02,-1.499265594999999962e+02,-3.042500000000000000e+02
-1.815749969999999962e+02,-1.499265594999999962e+02,-3.017500000000000000e+02
-1.808718719999999962e+02,-1.544968719999999962e+02,-3.055000000000000000e+02
-1.808718719999999962e+02,-1.548484344999999962e+02,-3.042500000000000000e+02
-1.808718719999999962e+02,-1.548484344999999962e+02,-3.017500000000000000e+02
-1.808718719999999962e+02,-1.541453094999999962e+02,-3.067500000000000000e+02
-1.808718719999999962e+02,-1.527390594999999962e+02,-3.067500000000000000e+02
-1.812234344999999962e+02,-1.523874969999999962e+02,-3.067500000000000000e+02
-1.808718719999999962e+02,-1.523874969999999962e+02,-3.055000000000000000e+02
-1.808718719999999962e+02,-1.520359344999999962e+02,-3.067500000000000000e+02
-1.808718719999999962e+02,-1.506296844999999962e+02,-3.067500000000000000e+02
-1.808718719999999962e+02,-1.502781219999999962e+02,-3.055000000000000000e+02
-1.812234344999999962e+02,-1.495749969999999962e+02,-3.042500000000000000e+02
-1.808718719999999962e+02,-1.495749969999999962e+02,-3.055000000000000000e+02
-1.808718719999999962e+02,-1.495749969999999962e+02,-3.030000000000000000e+02
-1.808718719999999962e+02,-1.499265594999999962e+02,-3.017500000000000000e+02
-1.808718719999999962e+02,-1.492234344999999962e+02,-3.042500000000000000e+02
-1.801687469999999962e+02,-1.544968719999999962e+02,-3.055000000000000000e+02
-1.801687469999999962e+02,-1.548484344999999962e+02,-3.042500000000000000e+02
-1.801687469999999962e+02,-1.548484344999999962e+02,-3.017500000000000000e+02
-1.801687469999999962e+02,-1.541453094999999962e+02,-3.067500000000000000e+02
-1.801687469999999962e+02,-1.534421844999999962e+02,-3.067500000000000000e+02
-1.805203094999999962e+02,-1.530906219999999962e+02,-3.067500000000000000e+02
-1.801687469999999962e+02,-1.530906219999999962e+02,-3.055000000000000000e+02
-1.801687469999999962e+02,-1.523874969999999962e+02,-3.055000000000000000e+02
-1.805203094999999962e+02,-1.516843719999999962e+02,-3.067500000000000000e+02
-1.801687469999999962e+02,-1.516843719999999962e+02,-3.055000000000000000e+02
-1.801687469999999962e+02,-1.509812469999999962e+02,-3.055000000000000000e+02
-1.805203094999999962e+02,-1.509812469999999962e+02,-3.067500000000000000e+02
-1.801687469999999962e+02,-1.502781219999999962e+02,-3.055000000000000000e+02
-1.801687469999999962e+02,-1.495749969999999962e+02,-3.055000000000000000e+02
-1.801687469999999962e+02,-1.499265594999999962e+02,-3.017500000000000000e+02
-1.801687469999999962e+02,-1.495749969999999962e+02,-3.030000000000000000e+02
-1.801687469999999962e+02,-1.492234344999999962e+02,-3.042500000000000000e+02
-1.794656219999999962e+02,-1.544968719999999962e+02,-3.055000000000000000e+02
-1.794656219999999962e+02,-1.548484344999999962e+02,-3.042500000000000000e+02
-1.794656219999999962e+02,-1.548484344999999962e+02,-3.017500000000000000e+02
-1.798171844999999962e+02,-1.537937469999999962e+02,-3.067500000000000000e+02
-1.794656219999999962e+02,-1.537937469999999962e+02,-3.055000000000000000e+02
-1.794656219999999962e+02,-1.530906219999999962e+02,-3.055000000000000000e+02
-1.794656219999999962e+02,-1.523874969999999962e+02,-3.055000000000000000e+02
-1.794656219999999962e+02,-1.516843719999999962e+02,-3.055000000000000000e+02
-1.794656219999999962e+02,-1.509812469999999962e+02,-3.055000000000000000e+02
-1.794656219999999962e+02,-1.502781219999999962e+02,-3.055000000000000000e+02
-1.794656219999999962e+02,-1.495749969999999962e+02,-3.055000000000000000e+02
-1.794656219999999962e+02,-1.499265594999999962e+02,-3.017500000000000000e+02
-1.794656219999999962e+02,-1.495749969999999962e+02,-3.030000000000000000e+02
-1.794656219999999962e+02,-1.492234344999999962e+02,-3.042500000000000000e+02
-1.787624969999999962e+02,-1.544968719999999962e+02,-3.055000000000000000e+02
-1.787624969999999962e+02,-1.548484344999999962e+02,-3.042500000000000000e+02
-1.787624969999999962e+02,-1.548484344999999962e+02,-3.017500000000000000e+02
-1.787624969999999962e+02,-1.537937469999999962e+02,-3.055000000000000000e+02
-1.787624969999999962e+02,-1.530906219999999962e+02,-3.055000000000000000e+02
-1.787624969999999962e+02,-1.523874969999999962e+02,-3.055000000000000000e+02
-1.787624969999999962e+02,-1.516843719999999962e+02,-3.055000000000000000e+02
-1.787624969999999962e+02,-1.509812469999999962e+02,-3.055000000000000000e+02
-1.787624969999999962e+02,-1.502781219999999962e+02,-3.055000000000000000e+02
-1.787624969999999962e+02,-1.495749969999999962e+02,-3.055000000000000000e+02
-1.787624969999999962e+02,-1.499265594999999962e+02,-3.017500000000000000e+02
-1.787624969999999962e+02,-1.495749969999999962e+02,-3.030000000000000000e+02
-1.787624969999999962e+02,-1.492234344999999962e+02,-3.042500000000000000e+02
-1.780593719999999962e+02,-1.544968719999999962e+02,-3.055000000000000000e+02
-1.780593719999999962e+02,-1.548484344999999962e+02,-3.042500000000000000e+02
-1.780593719999999962e+02,-1.548484344999999962e+02,-3.017500000000000000e+02
-1.780593719999999962e+02,-1.537937469999999962e+02,-3.055000000000000000e+02
-1.780593719999999962e+02,-1.530906219999999962e+02,-3.055000000000000000e+02
-1.780593719999999962e+02,-1.523874969999999962e+02,-3.055000000000000000e+02
-1.780593719999999962e+02,-1.516843719999999962e+02,-3.055000000000000000e+02
-1.780593719999999962e+02,-1.509812469999999962e+02,-3.055000000000000000e+02
-1.780593719999999962e+02,-1.502781219999999962e+02,-3.055000000000000000e+02
-1.780593719999999962e+02,-1.495749969999999962e+02,-3.055000000000000000e+02
-1.784109344999999962e+02,-1.495749969999999962e+02,-3.017500000000000000e+02
-1.780593719999999962e+02,-1.492234344999999962e+02,-3.042500000000000000e+02
-1.780593719999999962e+02,-1.492234344999999962e+02,-3.017500000000000000e+02
-1.773562469999999962e+02,-1.544968719999999962e+02,-3.055000000000000000e+02
-1.773562469999999962e+02,-1.548484344999999962e+02,-3.042500000000000000e+02
-1.777078094999999962e+02,-1.544968719999999962e+02,-3.017500000000000000e+02
-1.773562469999999962e+02,-1.544968719999999962e+02,-3.030000000000000000e+02
-1.773562469999999962e+02,-1.537937469999999962e+02,-3.055000000000000000e+02
-1.773562469999999962e+02,-1.541453094999999962e+02,-3.017500000000000000e+02
-1.773562469999999962e+02,-1.530906219999999962e+02,-3.055000000000000000e+02
-1.773562469999999962e+02,-1.523874969999999962e+02,-3.055000000000000000e+02
-1.773562469999999962e+02,-1.516843719999999962e+02,-3.055000000000000000e+02
-1.773562469999999962e+02,-1.509812469999999962e+02,-3.055000000000000000e+02
-1.773562469999999962e+02,-1.502781219999999962e+02,-3.055000000000000000e+02
-1.773562469999999962e+02,-1.495749969999999962e+02,-3.055000000000000000e+02
-1.773562469999999962e+02,-1.492234344999999962e+02,-3.042500000000000000e+02
-1.777078094999999962e+02,-1.488718719999999962e+02,-3.017500000000000000e+02
-1.773562469999999962e+02,-1.488718719999999962e+02,-3.030000000000000000e+02
-1.773562469999999962e+02,-1.485203094999999962e+02,-3.017500000000000000e+02
-1.770046844999999962e+02,-1.544968719999999962e+02,-3.042500000000000000e+02
-1.770046844999999962e+02,-1.537937469999999962e+02,-3.042500000000000000e+02
-1.770046844999999962e+02,-1.537937469999999962e+02,-3.017500000000000000e+02
-1.770046844999999962e+02,-1.530906219999999962e+02,-3.042500000000000000e+02
-1.770046844999999962e+02,-1.530906219999999962e+02,-3.017500000000000000e+02
-1.766531219999999962e+02,-1.523874969999999962e+02,-3.055000000000000000e+02
-1.766531219999999962e+02,-1.527390594999999962e+02,-3.042500000000000000e+02
-1.766531219999999962e+02,-1.527390594999999962e+02,-3.017500000000000000e+02
-1.766531219999999962e+02,-1.516843719999999962e+02,-3.055000000000000000e+02
-1.766531219999999962e+02,-1.509812469999999962e+02,-3.055000000000000000e+02
-1.766531219999999962e+02,-1.502781219999999962e+02,-3.055000000000000000e+02
-1.766531219999999962e+02,-1.495749969999999962e+02,-3.055000000000000000e+02
-1.766531219999999962e+02,-1.492234344999999962e+02,-3.042500000000000000e+02
-1.766531219999999962e+02,-1.488718719999999962e+02,-3.030000000000000000e+02
-1.770046844999999962e+02,-1.481687469999999962e+02,-3.017500000000000000e+02
-1.766531219999999962e+02,-1.481687469999999962e+02,-3.030000000000000000e+02
-1.766531219999999962e+02,-1.478171844999999962e+02,-3.017500000000000000e+02
-1.763015594999999962e+02,-1.523874969999999962e+02,-3.042500000000000000e+02
-1.763015594999999962e+02,-1.523874969999999962e+02,-3.017500000000000000e+02
-1.759499969999999962e+02,-1.516843719999999962e+02,-3.055000000000000000e+02
-1.759499969999999962e+02,-1.520359344999999962e+02,-3.042500000000000000e+02
-1.759499969999999962e+02,-1.520359344999999962e+02,-3.017500000000000000e+02
-1.759499969999999962e+02,-1.509812469999999962e+02,-3.055000000000000000e+02
-1.759499969999999962e+02,-1.502781219999999962e+02,-3.055000000000000000e+02
-1.759499969999999962e+02,-1.499265594999999962e+02,-3.042500000000000000e+02
-1.763015594999999962e+02,-1.495749969999999962e+02,-3.042500000000000000e+02
-1.759499969999999962e+02,-1.495749969999999962e+02,-3.030000000000000000e+02
-1.759499969999999962e+02,-1.488718719999999962e+02,-3.030000000000000000e+02
-1.759499969999999962e+02,-1.481687469999999962e+02,-3.030000000000000000e+02
-1.759499969999999962e+02,-1.478171844999999962e+02,-3.017500000000000000e+02
-1.752468719999999962e+02,-1.516843719999999962e+02,-3.055000000000000000e+02
-1.752468719999999962e+02,-1.520359344999999962e+02,-3.042500000000000000e+02
-1.755984344999999962e+02,-1.516843719999999962e+02,-3.017500000000000000e+02
-1.752468719999999962e+02,-1.516843719999999962e+02,-3.030000000000000000e+02
-1.752468719999999962e+02,-1.509812469999999962e+02,-3.055000000000000000e+02
-1.755984344999999962e+02,-1.509812469999999962e+02,-3.017500000000000000e+02
-1.752468719999999962e+02,-1.509812469999999962e+02,-3.030000000000000000e+02
-1.752468719999999962e+02,-1.502781219999999962e+02,-3.055000000000000000e+02
-1.755984344999999962e+02,-1.502781219999999962e+02,-3.017500000000000000e+02
-1.752468719999999962e+02,-1.502781219999999962e+02,-3.030000000000000000e+02
-1.752468719999999962e+02,-1.499265594999999962e+02,-3.042500000000000000e+02
-1.755984344999999962e+02,-1.495749969999999962e+02,-3.017500000000000000e+02
-1.755984344999999962e+02,-1.488718719999999962e+02,-3.017500000000000000e+02
-1.755984344999999962e+02,-1.481687469999999962e+02,-3.017500000000000000e+02
-1.748953094999999962e+02,-1.516843719999999962e+02,-3.042500000000000000e+02
-1.748953094999999962e+02,-1.509812469999999962e+02,-3.042500000000000000e+02
-1.748953094999999962e+02,-1.502781219999999962e+02,-3.042500000000000000e+02
