-1.880618422500000122e+02,-3.205402995000000033e+01,-7.250000000000000000e+02
-1.883958266250000122e+02,-3.205402995000000033e+01,-7.175000000000000000e+02
-1.880618422500000122e+02,-3.205402995000000033e+01,-7.170000000000000000e+02
-1.880618422500000122e+02,-3.172004557500000033e+01,-7.245000000000000000e+02
-1.880618422500000122e+02,-3.138606120000000033e+01,-7.240000000000000000e+02
-1.883958266250000122e+02,-3.138606120000000033e+01,-7.185000000000000000e+02
-1.880618422500000122e+02,-3.138606120000000033e+01,-7.180000000000000000e+02
-1.880618422500000122e+02,-3.172004557500000033e+01,-7.175000000000000000e+02
-1.883958266250000122e+02,-3.071809245000000033e+01,-7.235000000000000000e+02
-1.880618422500000122e+02,-3.071809245000000033e+01,-7.240000000000000000e+02
-1.880618422500000122e+02,-3.105207682500000033e+01,-7.185000000000000000e+02
-1.880618422500000122e+02,-3.071809245000000033e+01,-7.190000000000000000e+02
-1.883958266250000122e+02,-3.071809245000000033e+01,-7.165000000000000000e+02
-1.880618422500000122e+02,-3.071809245000000033e+01,-7.170000000000000000e+02
-1.880618422500000122e+02,-3.105207682500000033e+01,-7.165000000000000000e+02
-1.880618422500000122e+02,-3.105207682500000033e+01,-7.155000000000000000e+02
-1.883958266250000122e+02,-3.071809245000000033e+01,-7.155000000000000000e+02
-1.880618422500000122e+02,-3.071809245000000033e+01,-7.150000000000000000e+02
-1.880618422500000122e+02,-3.005012370000000033e+01,-7.240000000000000000e+02
-1.880618422500000122e+02,-3.005012370000000033e+01,-7.190000000000000000e+02
-1.880618422500000122e+02,-3.038410807500000033e+01,-7.165000000000000000e+02
-1.880618422500000122e+02,-3.038410807500000033e+01,-7.155000000000000000e+02
-1.880618422500000122e+02,-2.938215495000000033e+01,-7.240000000000000000e+02
-1.880618422500000122e+02,-2.938215495000000033e+01,-7.190000000000000000e+02
-1.880618422500000122e+02,-2.871418620000000033e+01,-7.240000000000000000e+02
-1.883958266250000122e+02,-2.871418620000000033e+01,-7.195000000000000000e+02
-1.880618422500000122e+02,-2.871418620000000033e+01,-7.190000000000000000e+02
-1.883958266250000122e+02,-2.804621745000000033e+01,-7.235000000000000000e+02
-1.880618422500000122e+02,-2.804621745000000033e+01,-7.240000000000000000e+02
-1.883958266250000122e+02,-2.804621745000000033e+01,-7.195000000000000000e+02
-1.880618422500000122e+02,-2.804621745000000033e+01,-7.190000000000000000e+02
-1.880618422500000122e+02,-2.771223307500000033e+01,-7.235000000000000000e+02
-1.880618422500000122e+02,-2.737824870000000033e+01,-7.230000000000000000e+02
-1.883958266250000122e+02,-2.737824870000000033e+01,-7.205000000000000000e+02
-1.880618422500000122e+02,-2.737824870000000033e+01,-7.200000000000000000e+02
-1.880618422500000122e+02,-2.771223307500000033e+01,-7.195000000000000000e+02
-1.883958266250000122e+02,-2.671027995000000033e+01,-7.225000000000000000e+02
-1.880618422500000122e+02,-2.671027995000000033e+01,-7.230000000000000000e+02
-1.883958266250000122e+02,-2.671027995000000033e+01,-7.215000000000000000e+02
-1.880618422500000122e+02,-2.671027995000000033e+01,-7.210000000000000000e+02
-1.880618422500000122e+02,-2.704426432500000033e+01,-7.205000000000000000e+02
-1.880618422500000122e+02,-2.637629557500000033e+01,-7.225000000000000000e+02
-1.880618422500000122e+02,-2.637629557500000033e+01,-7.215000000000000000e+02
-1.877278578750000122e+02,-3.672981120000000033e+01,-7.225000000000000000e+02
-1.873938735000000122e+02,-3.672981120000000033e+01,-7.220000000000000000e+02
-1.873938735000000122e+02,-3.706379557500000033e+01,-7.215000000000000000e+02
-1.873938735000000122e+02,-3.706379557500000033e+01,-7.205000000000000000e+02
-1.873938735000000122e+02,-3.672981120000000033e+01,-7.200000000000000000e+02
-1.873938735000000122e+02,-3.606184245000000033e+01,-7.240000000000000000e+02
-1.873938735000000122e+02,-3.639582682500000033e+01,-7.235000000000000000e+02
-1.873938735000000122e+02,-3.639582682500000033e+01,-7.225000000000000000e+02
-1.873938735000000122e+02,-3.639582682500000033e+01,-7.195000000000000000e+02
-1.877278578750000122e+02,-3.606184245000000033e+01,-7.195000000000000000e+02
-1.873938735000000122e+02,-3.606184245000000033e+01,-7.190000000000000000e+02
-1.873938735000000122e+02,-3.539387370000000033e+01,-7.240000000000000000e+02
-1.873938735000000122e+02,-3.572785807500000033e+01,-7.185000000000000000e+02
-1.873938735000000122e+02,-3.572785807500000033e+01,-7.175000000000000000e+02
-1.877278578750000122e+02,-3.539387370000000033e+01,-7.175000000000000000e+02
-1.873938735000000122e+02,-3.572785807500000033e+01,-7.165000000000000000e+02
-1.877278578750000122e+02,-3.539387370000000033e+01,-7.165000000000000000e+02
-1.873938735000000122e+02,-3.539387370000000033e+01,-7.160000000000000000e+02
-1.877278578750000122e+02,-3.472590495000000033e+01,-7.255000000000000000e+02
-1.873938735000000122e+02,-3.472590495000000033e+01,-7.260000000000000000e+02
-1.873938735000000122e+02,-3.505988932500000033e+01,-7.255000000000000000e+02
-1.873938735000000122e+02,-3.505988932500000033e+01,-7.245000000000000000e+02
-1.873938735000000122e+02,-3.472590495000000033e+01,-7.160000000000000000e+02
-1.877278578750000122e+02,-3.405793620000000033e+01,-7.265000000000000000e+02
-1.873938735000000122e+02,-3.405793620000000033e+01,-7.270000000000000000e+02
-1.873938735000000122e+02,-3.439192057500000033e+01,-7.265000000000000000e+02
-1.873938735000000122e+02,-3.405793620000000033e+01,-7.160000000000000000e+02
-1.877278578750000122e+02,-3.338996745000000033e+01,-7.265000000000000000e+02
-1.873938735000000122e+02,-3.338996745000000033e+01,-7.270000000000000000e+02
-1.873938735000000122e+02,-3.338996745000000033e+01,-7.160000000000000000e+02
-1.873938735000000122e+02,-3.305598307500000033e+01,-7.265000000000000000e+02
-1.873938735000000122e+02,-3.272199870000000033e+01,-7.260000000000000000e+02
-1.877278578750000122e+02,-3.272199870000000033e+01,-7.165000000000000000e+02
-1.873938735000000122e+02,-3.272199870000000033e+01,-7.160000000000000000e+02
-1.873938735000000122e+02,-3.238801432500000033e+01,-7.255000000000000000e+02
-1.873938735000000122e+02,-3.205402995000000033e+01,-7.250000000000000000e+02
-1.873938735000000122e+02,-3.238801432500000033e+01,-7.165000000000000000e+02
-1.873938735000000122e+02,-3.205402995000000033e+01,-7.170000000000000000e+02
-1.877278578750000122e+02,-3.138606120000000033e+01,-7.245000000000000000e+02
-1.873938735000000122e+02,-3.138606120000000033e+01,-7.250000000000000000e+02
-1.877278578750000122e+02,-3.138606120000000033e+01,-7.175000000000000000e+02
-1.873938735000000122e+02,-3.172004557500000033e+01,-7.165000000000000000e+02
-1.877278578750000122e+02,-3.138606120000000033e+01,-7.165000000000000000e+02
-1.873938735000000122e+02,-3.172004557500000033e+01,-7.155000000000000000e+02
-1.877278578750000122e+02,-3.138606120000000033e+01,-7.155000000000000000e+02
-1.873938735000000122e+02,-3.138606120000000033e+01,-7.150000000000000000e+02
-1.877278578750000122e+02,-3.071809245000000033e+01,-7.245000000000000000e+02
-1.873938735000000122e+02,-3.071809245000000033e+01,-7.250000000000000000e+02
-1.877278578750000122e+02,-3.071809245000000033e+01,-7.185000000000000000e+02
-1.877278578750000122e+02,-3.071809245000000033e+01,-7.175000000000000000e+02
-1.873938735000000122e+02,-3.071809245000000033e+01,-7.150000000000000000e+02
-1.877278578750000122e+02,-3.005012370000000033e+01,-7.245000000000000000e+02
-1.873938735000000122e+02,-3.005012370000000033e+01,-7.250000000000000000e+02
-1.877278578750000122e+02,-3.005012370000000033e+01,-7.185000000000000000e+02
-1.877278578750000122e+02,-3.005012370000000033e+01,-7.175000000000000000e+02
-1.877278578750000122e+02,-3.005012370000000033e+01,-7.165000000000000000e+02
-1.877278578750000122e+02,-3.005012370000000033e+01,-7.155000000000000000e+02
-1.873938735000000122e+02,-3.005012370000000033e+01,-7.150000000000000000e+02
-1.877278578750000122e+02,-2.938215495000000033e+01,-7.245000000000000000e+02
-1.873938735000000122e+02,-2.938215495000000033e+01,-7.250000000000000000e+02
-1.877278578750000122e+02,-2.938215495000000033e+01,-7.185000000000000000e+02
-1.873938735000000122e+02,-2.938215495000000033e+01,-7.180000000000000000e+02
-1.873938735000000122e+02,-2.971613932500000033e+01,-7.175000000000000000e+02
-1.877278578750000122e+02,-2.938215495000000033e+01,-7.165000000000000000e+02
-1.873938735000000122e+02,-2.938215495000000033e+01,-7.170000000000000000e+02
-1.877278578750000122e+02,-2.938215495000000033e+01,-7.155000000000000000e+02
-1.873938735000000122e+02,-2.938215495000000033e+01,-7.150000000000000000e+02
-1.873938735000000122e+02,-2.904817057500000033e+01,-7.245000000000000000e+02
-1.873938735000000122e+02,-2.871418620000000033e+01,-7.240000000000000000e+02
-1.873938735000000122e+02,-2.904817057500000033e+01,-7.185000000000000000e+02
-1.873938735000000122e+02,-2.871418620000000033e+01,-7.190000000000000000e+02
-1.873938735000000122e+02,-2.904817057500000033e+01,-7.165000000000000000e+02
-1.873938735000000122e+02,-2.904817057500000033e+01,-7.155000000000000000e+02
-1.873938735000000122e+02,-2.804621745000000033e+01,-7.240000000000000000e+02
-1.873938735000000122e+02,-2.804621745000000033e+01,-7.190000000000000000e+02
-1.877278578750000122e+02,-2.737824870000000033e+01,-7.235000000000000000e+02
-1.873938735000000122e+02,-2.737824870000000033e+01,-7.240000000000000000e+02
-1.873938735000000122e+02,-2.771223307500000033e+01,-7.195000000000000000e+02
-1.873938735000000122e+02,-2.737824870000000033e+01,-7.200000000000000000e+02
-1.873938735000000122e+02,-2.704426432500000033e+01,-7.235000000000000000e+02
-1.873938735000000122e+02,-2.671027995000000033e+01,-7.230000000000000000e+02
-1.877278578750000122e+02,-2.671027995000000033e+01,-7.205000000000000000e+02
-1.873938735000000122e+02,-2.671027995000000033e+01,-7.200000000000000000e+02
-1.873938735000000122e+02,-2.637629557500000033e+01,-7.225000000000000000e+02
-1.873938735000000122e+02,-2.637629557500000033e+01,-7.215000000000000000e+02
-1.873938735000000122e+02,-2.637629557500000033e+01,-7.205000000000000000e+02
-1.870598891250000122e+02,-3.739777995000000033e+01,-7.215000000000000000e+02
-1.867259047500000122e+02,-3.739777995000000033e+01,-7.220000000000000000e+02
-1.867259047500000122e+02,-3.773176432500000033e+01,-7.215000000000000000e+02
-1.867259047500000122e+02,-3.739777995000000033e+01,-7.210000000000000000e+02
-1.867259047500000122e+02,-3.672981120000000033e+01,-7.220000000000000000e+02
-1.867259047500000122e+02,-3.706379557500000033e+01,-7.205000000000000000e+02
-1.867259047500000122e+02,-3.706379557500000033e+01,-7.195000000000000000e+02
-1.870598891250000122e+02,-3.672981120000000033e+01,-7.195000000000000000e+02
-1.867259047500000122e+02,-3.672981120000000033e+01,-7.190000000000000000e+02
-1.867259047500000122e+02,-3.606184245000000033e+01,-7.240000000000000000e+02
-1.867259047500000122e+02,-3.639582682500000033e+01,-7.235000000000000000e+02
-1.867259047500000122e+02,-3.639582682500000033e+01,-7.225000000000000000e+02
-1.867259047500000122e+02,-3.639582682500000033e+01,-7.185000000000000000e+02
-1.870598891250000122e+02,-3.606184245000000033e+01,-7.185000000000000000e+02
-1.867259047500000122e+02,-3.606184245000000033e+01,-7.180000000000000000e+02
-1.870598891250000122e+02,-3.606184245000000033e+01,-7.165000000000000000e+02
-1.867259047500000122e+02,-3.606184245000000033e+01,-7.170000000000000000e+02
-1.867259047500000122e+02,-3.639582682500000033e+01,-7.165000000000000000e+02
-1.867259047500000122e+02,-3.606184245000000033e+01,-7.160000000000000000e+02
-1.867259047500000122e+02,-3.539387370000000033e+01,-7.240000000000000000e+02
-1.867259047500000122e+02,-3.572785807500000033e+01,-7.175000000000000000e+02
-1.867259047500000122e+02,-3.539387370000000033e+01,-7.160000000000000000e+02
-1.870598891250000122e+02,-3.472590495000000033e+01,-7.265000000000000000e+02
-1.867259047500000122e+02,-3.472590495000000033e+01,-7.270000000000000000e+02
-1.867259047500000122e+02,-3.505988932500000033e+01,-7.265000000000000000e+02
-1.867259047500000122e+02,-3.505988932500000033e+01,-7.255000000000000000e+02
-1.867259047500000122e+02,-3.505988932500000033e+01,-7.245000000000000000e+02
-1.867259047500000122e+02,-3.472590495000000033e+01,-7.160000000000000000e+02
-1.870598891250000122e+02,-3.405793620000000033e+01,-7.275000000000000000e+02
-1.867259047500000122e+02,-3.439192057500000033e+01,-7.275000000000000000e+02
-1.867259047500000122e+02,-3.405793620000000033e+01,-7.160000000000000000e+02
-1.870598891250000122e+02,-3.338996745000000033e+01,-7.275000000000000000e+02
-1.867259047500000122e+02,-3.338996745000000033e+01,-7.160000000000000000e+02
-1.870598891250000122e+02,-3.272199870000000033e+01,-7.265000000000000000e+02
-1.867259047500000122e+02,-3.272199870000000033e+01,-7.270000000000000000e+02
-1.867259047500000122e+02,-3.305598307500000033e+01,-7.275000000000000000e+02
-1.867259047500000122e+02,-3.272199870000000033e+01,-7.160000000000000000e+02
-1.867259047500000122e+02,-3.238801432500000033e+01,-7.265000000000000000e+02
-1.870598891250000122e+02,-3.205402995000000033e+01,-7.255000000000000000e+02
-1.867259047500000122e+02,-3.205402995000000033e+01,-7.260000000000000000e+02
-1.870598891250000122e+02,-3.205402995000000033e+01,-7.165000000000000000e+02
-1.867259047500000122e+02,-3.238801432500000033e+01,-7.155000000000000000e+02
-1.870598891250000122e+02,-3.205402995000000033e+01,-7.155000000000000000e+02
-1.867259047500000122e+02,-3.205402995000000033e+01,-7.150000000000000000e+02
-1.867259047500000122e+02,-3.172004557500000033e+01,-7.255000000000000000e+02
-1.867259047500000122e+02,-3.138606120000000033e+01,-7.250000000000000000e+02
-1.867259047500000122e+02,-3.138606120000000033e+01,-7.150000000000000000e+02
-1.867259047500000122e+02,-3.071809245000000033e+01,-7.250000000000000000e+02
-1.867259047500000122e+02,-3.071809245000000033e+01,-7.150000000000000000e+02
-1.867259047500000122e+02,-3.005012370000000033e+01,-7.250000000000000000e+02
-1.867259047500000122e+02,-3.005012370000000033e+01,-7.150000000000000000e+02
-1.867259047500000122e+02,-2.938215495000000033e+01,-7.250000000000000000e+02
-1.870598891250000122e+02,-2.938215495000000033e+01,-7.175000000000000000e+02
-1.867259047500000122e+02,-2.938215495000000033e+01,-7.150000000000000000e+02
-1.870598891250000122e+02,-2.871418620000000033e+01,-7.245000000000000000e+02
-1.867259047500000122e+02,-2.871418620000000033e+01,-7.250000000000000000e+02
-1.870598891250000122e+02,-2.871418620000000033e+01,-7.185000000000000000e+02
-1.867259047500000122e+02,-2.871418620000000033e+01,-7.180000000000000000e+02
-1.867259047500000122e+02,-2.904817057500000033e+01,-7.175000000000000000e+02
-1.870598891250000122e+02,-2.871418620000000033e+01,-7.165000000000000000e+02
-1.867259047500000122e+02,-2.871418620000000033e+01,-7.170000000000000000e+02
-1.870598891250000122e+02,-2.871418620000000033e+01,-7.155000000000000000e+02
-1.867259047500000122e+02,-2.871418620000000033e+01,-7.150000000000000000e+02
-1.867259047500000122e+02,-2.838020182500000033e+01,-7.245000000000000000e+02
-1.867259047500000122e+02,-2.804621745000000033e+01,-7.240000000000000000e+02
-1.867259047500000122e+02,-2.838020182500000033e+01,-7.185000000000000000e+02
-1.867259047500000122e+02,-2.804621745000000033e+01,-7.190000000000000000e+02
-1.867259047500000122e+02,-2.838020182500000033e+01,-7.165000000000000000e+02
-1.867259047500000122e+02,-2.838020182500000033e+01,-7.155000000000000000e+02
-1.867259047500000122e+02,-2.737824870000000033e+01,-7.240000000000000000e+02
-1.870598891250000122e+02,-2.737824870000000033e+01,-7.195000000000000000e+02
-1.867259047500000122e+02,-2.737824870000000033e+01,-7.190000000000000000e+02
-1.867259047500000122e+02,-2.704426432500000033e+01,-7.235000000000000000e+02
-1.867259047500000122e+02,-2.671027995000000033e+01,-7.230000000000000000e+02
-1.867259047500000122e+02,-2.704426432500000033e+01,-7.195000000000000000e+02
-1.867259047500000122e+02,-2.671027995000000033e+01,-7.200000000000000000e+02
-1.867259047500000122e+02,-2.637629557500000033e+01,-7.225000000000000000e+02
-1.867259047500000122e+02,-2.637629557500000033e+01,-7.215000000000000000e+02
-1.867259047500000122e+02,-2.637629557500000033e+01,-7.205000000000000000e+02
-1.863919203750000122e+02,-3.806574870000000033e+01,-7.215000000000000000e+02
-1.860579360000000122e+02,-3.806574870000000033e+01,-7.220000000000000000e+02
-1.860579360000000122e+02,-3.839973307500000033e+01,-7.215000000000000000e+02
-1.860579360000000122e+02,-3.806574870000000033e+01,-7.210000000000000000e+02
-1.860579360000000122e+02,-3.739777995000000033e+01,-7.220000000000000000e+02
-1.860579360000000122e+02,-3.739777995000000033e+01,-7.210000000000000000e+02
-1.863919203750000122e+02,-3.672981120000000033e+01,-7.225000000000000000e+02
-1.860579360000000122e+02,-3.672981120000000033e+01,-7.230000000000000000e+02
-1.860579360000000122e+02,-3.706379557500000033e+01,-7.225000000000000000e+02
-1.860579360000000122e+02,-3.706379557500000033e+01,-7.205000000000000000e+02
-1.860579360000000122e+02,-3.706379557500000033e+01,-7.195000000000000000e+02
-1.860579360000000122e+02,-3.706379557500000033e+01,-7.185000000000000000e+02
-1.863919203750000122e+02,-3.672981120000000033e+01,-7.185000000000000000e+02
-1.860579360000000122e+02,-3.672981120000000033e+01,-7.180000000000000000e+02
-1.863919203750000122e+02,-3.672981120000000033e+01,-7.155000000000000000e+02
-1.860579360000000122e+02,-3.672981120000000033e+01,-7.160000000000000000e+02
-1.860579360000000122e+02,-3.706379557500000033e+01,-7.155000000000000000e+02
-1.860579360000000122e+02,-3.672981120000000033e+01,-7.150000000000000000e+02
-1.860579360000000122e+02,-3.606184245000000033e+01,-7.240000000000000000e+02
-1.860579360000000122e+02,-3.639582682500000033e+01,-7.235000000000000000e+02
-1.860579360000000122e+02,-3.639582682500000033e+01,-7.175000000000000000e+02
-1.863919203750000122e+02,-3.606184245000000033e+01,-7.175000000000000000e+02
-1.860579360000000122e+02,-3.639582682500000033e+01,-7.165000000000000000e+02
-1.863919203750000122e+02,-3.606184245000000033e+01,-7.155000000000000000e+02
-1.860579360000000122e+02,-3.606184245000000033e+01,-7.150000000000000000e+02
-1.860579360000000122e+02,-3.539387370000000033e+01,-7.240000000000000000e+02
-1.863919203750000122e+02,-3.539387370000000033e+01,-7.155000000000000000e+02
-1.860579360000000122e+02,-3.539387370000000033e+01,-7.150000000000000000e+02
-1.860579360000000122e+02,-3.472590495000000033e+01,-7.270000000000000000e+02
-1.860579360000000122e+02,-3.505988932500000033e+01,-7.265000000000000000e+02
-1.860579360000000122e+02,-3.505988932500000033e+01,-7.255000000000000000e+02
-1.860579360000000122e+02,-3.505988932500000033e+01,-7.245000000000000000e+02
-1.863919203750000122e+02,-3.472590495000000033e+01,-7.155000000000000000e+02
-1.860579360000000122e+02,-3.472590495000000033e+01,-7.150000000000000000e+02
-1.860579360000000122e+02,-3.439192057500000033e+01,-7.275000000000000000e+02
-1.860579360000000122e+02,-3.439192057500000033e+01,-7.155000000000000000e+02
-1.860579360000000122e+02,-3.405793620000000033e+01,-7.160000000000000000e+02
-1.860579360000000122e+02,-3.338996745000000033e+01,-7.160000000000000000e+02
-1.863919203750000122e+02,-3.272199870000000033e+01,-7.275000000000000000e+02
-1.860579360000000122e+02,-3.272199870000000033e+01,-7.160000000000000000e+02
-1.863919203750000122e+02,-3.205402995000000033e+01,-7.265000000000000000e+02
-1.863919203750000122e+02,-3.205402995000000033e+01,-7.275000000000000000e+02
-1.860579360000000122e+02,-3.238801432500000033e+01,-7.155000000000000000e+02
-1.860579360000000122e+02,-3.238801432500000033e+01,-7.145000000000000000e+02
-1.863919203750000122e+02,-3.205402995000000033e+01,-7.145000000000000000e+02
-1.860579360000000122e+02,-3.205402995000000033e+01,-7.140000000000000000e+02
-1.863919203750000122e+02,-3.138606120000000033e+01,-7.265000000000000000e+02
-1.863919203750000122e+02,-3.138606120000000033e+01,-7.275000000000000000e+02
-1.863919203750000122e+02,-3.138606120000000033e+01,-7.255000000000000000e+02
-1.863919203750000122e+02,-3.138606120000000033e+01,-7.145000000000000000e+02
-1.860579360000000122e+02,-3.138606120000000033e+01,-7.140000000000000000e+02
-1.860579360000000122e+02,-3.105207682500000033e+01,-7.275000000000000000e+02
-1.860579360000000122e+02,-3.105207682500000033e+01,-7.265000000000000000e+02
-1.863919203750000122e+02,-3.071809245000000033e+01,-7.255000000000000000e+02
-1.860579360000000122e+02,-3.071809245000000033e+01,-7.260000000000000000e+02
-1.863919203750000122e+02,-3.071809245000000033e+01,-7.145000000000000000e+02
-1.860579360000000122e+02,-3.071809245000000033e+01,-7.140000000000000000e+02
-1.860579360000000122e+02,-3.038410807500000033e+01,-7.255000000000000000e+02
-1.860579360000000122e+02,-3.005012370000000033e+01,-7.250000000000000000e+02
-1.863919203750000122e+02,-3.005012370000000033e+01,-7.145000000000000000e+02
-1.860579360000000122e+02,-3.005012370000000033e+01,-7.140000000000000000e+02
-1.860579360000000122e+02,-2.938215495000000033e+01,-7.250000000000000000e+02
-1.860579360000000122e+02,-2.971613932500000033e+01,-7.145000000000000000e+02
-1.860579360000000122e+02,-2.938215495000000033e+01,-7.150000000000000000e+02
-1.860579360000000122e+02,-2.871418620000000033e+01,-7.250000000000000000e+02
-1.863919203750000122e+02,-2.871418620000000033e+01,-7.175000000000000000e+02
-1.860579360000000122e+02,-2.871418620000000033e+01,-7.150000000000000000e+02
-1.860579360000000122e+02,-2.838020182500000033e+01,-7.245000000000000000e+02
-1.860579360000000122e+02,-2.804621745000000033e+01,-7.240000000000000000e+02
-1.863919203750000122e+02,-2.804621745000000033e+01,-7.185000000000000000e+02
-1.860579360000000122e+02,-2.804621745000000033e+01,-7.180000000000000000e+02
-1.860579360000000122e+02,-2.838020182500000033e+01,-7.175000000000000000e+02
-1.863919203750000122e+02,-2.804621745000000033e+01,-7.165000000000000000e+02
-1.860579360000000122e+02,-2.804621745000000033e+01,-7.170000000000000000e+02
-1.863919203750000122e+02,-2.804621745000000033e+01,-7.155000000000000000e+02
-1.860579360000000122e+02,-2.804621745000000033e+01,-7.150000000000000000e+02
-1.860579360000000122e+02,-2.737824870000000033e+01,-7.240000000000000000e+02
-1.860579360000000122e+02,-2.771223307500000033e+01,-7.185000000000000000e+02
-1.860579360000000122e+02,-2.737824870000000033e+01,-7.190000000000000000e+02
-1.860579360000000122e+02,-2.771223307500000033e+01,-7.165000000000000000e+02
-1.860579360000000122e+02,-2.771223307500000033e+01,-7.155000000000000000e+02
-1.863919203750000122e+02,-2.671027995000000033e+01,-7.235000000000000000e+02
-1.860579360000000122e+02,-2.671027995000000033e+01,-7.240000000000000000e+02
-1.863919203750000122e+02,-2.671027995000000033e+01,-7.205000000000000000e+02
-1.860579360000000122e+02,-2.704426432500000033e+01,-7.205000000000000000e+02
-1.860579360000000122e+02,-2.671027995000000033e+01,-7.210000000000000000e+02
-1.860579360000000122e+02,-2.704426432500000033e+01,-7.195000000000000000e+02
-1.860579360000000122e+02,-2.637629557500000033e+01,-7.235000000000000000e+02
-1.860579360000000122e+02,-2.637629557500000033e+01,-7.225000000000000000e+02
-1.860579360000000122e+02,-2.637629557500000033e+01,-7.215000000000000000e+02
-1.857239516250000122e+02,-3.873371745000000033e+01,-7.215000000000000000e+02
-1.853899672500000122e+02,-3.873371745000000033e+01,-7.220000000000000000e+02
-1.853899672500000122e+02,-3.906770182500000033e+01,-7.215000000000000000e+02
-1.853899672500000122e+02,-3.873371745000000033e+01,-7.210000000000000000e+02
-1.853899672500000122e+02,-3.806574870000000033e+01,-7.220000000000000000e+02
-1.853899672500000122e+02,-3.806574870000000033e+01,-7.210000000000000000e+02
-1.857239516250000122e+02,-3.806574870000000033e+01,-7.185000000000000000e+02
-1.853899672500000122e+02,-3.806574870000000033e+01,-7.190000000000000000e+02
-1.853899672500000122e+02,-3.839973307500000033e+01,-7.185000000000000000e+02
-1.853899672500000122e+02,-3.806574870000000033e+01,-7.180000000000000000e+02
-1.857239516250000122e+02,-3.739777995000000033e+01,-7.225000000000000000e+02
-1.853899672500000122e+02,-3.739777995000000033e+01,-7.230000000000000000e+02
-1.853899672500000122e+02,-3.773176432500000033e+01,-7.225000000000000000e+02
-1.853899672500000122e+02,-3.739777995000000033e+01,-7.210000000000000000e+02
-1.857239516250000122e+02,-3.739777995000000033e+01,-7.185000000000000000e+02
-1.853899672500000122e+02,-3.739777995000000033e+01,-7.190000000000000000e+02
-1.853899672500000122e+02,-3.739777995000000033e+01,-7.180000000000000000e+02
-1.853899672500000122e+02,-3.672981120000000033e+01,-7.230000000000000000e+02
-1.853899672500000122e+02,-3.706379557500000033e+01,-7.205000000000000000e+02
-1.853899672500000122e+02,-3.706379557500000033e+01,-7.195000000000000000e+02
-1.853899672500000122e+02,-3.706379557500000033e+01,-7.175000000000000000e+02
-1.857239516250000122e+02,-3.672981120000000033e+01,-7.175000000000000000e+02
-1.853899672500000122e+02,-3.672981120000000033e+01,-7.170000000000000000e+02
-1.853899672500000122e+02,-3.672981120000000033e+01,-7.160000000000000000e+02
-1.853899672500000122e+02,-3.706379557500000033e+01,-7.155000000000000000e+02
-1.853899672500000122e+02,-3.672981120000000033e+01,-7.150000000000000000e+02
-1.853899672500000122e+02,-3.606184245000000033e+01,-7.240000000000000000e+02
-1.853899672500000122e+02,-3.639582682500000033e+01,-7.235000000000000000e+02
-1.853899672500000122e+02,-3.639582682500000033e+01,-7.165000000000000000e+02
-1.853899672500000122e+02,-3.606184245000000033e+01,-7.150000000000000000e+02
-1.853899672500000122e+02,-3.539387370000000033e+01,-7.240000000000000000e+02
-1.853899672500000122e+02,-3.539387370000000033e+01,-7.150000000000000000e+02
-1.857239516250000122e+02,-3.472590495000000033e+01,-7.275000000000000000e+02
-1.853899672500000122e+02,-3.505988932500000033e+01,-7.275000000000000000e+02
-1.853899672500000122e+02,-3.505988932500000033e+01,-7.265000000000000000e+02
-1.853899672500000122e+02,-3.505988932500000033e+01,-7.255000000000000000e+02
-1.853899672500000122e+02,-3.505988932500000033e+01,-7.245000000000000000e+02
-1.853899672500000122e+02,-3.472590495000000033e+01,-7.150000000000000000e+02
-1.857239516250000122e+02,-3.405793620000000033e+01,-7.155000000000000000e+02
-1.853899672500000122e+02,-3.405793620000000033e+01,-7.150000000000000000e+02
-1.853899672500000122e+02,-3.372395182500000033e+01,-7.155000000000000000e+02
-1.853899672500000122e+02,-3.338996745000000033e+01,-7.160000000000000000e+02
-1.853899672500000122e+02,-3.305598307500000033e+01,-7.155000000000000000e+02
-1.857239516250000122e+02,-3.272199870000000033e+01,-7.155000000000000000e+02
-1.853899672500000122e+02,-3.272199870000000033e+01,-7.150000000000000000e+02
-1.857239516250000122e+02,-3.272199870000000033e+01,-7.135000000000000000e+02
-1.853899672500000122e+02,-3.272199870000000033e+01,-7.140000000000000000e+02
-1.853899672500000122e+02,-3.305598307500000033e+01,-7.135000000000000000e+02
-1.853899672500000122e+02,-3.272199870000000033e+01,-7.130000000000000000e+02
-1.853899672500000122e+02,-3.238801432500000033e+01,-7.145000000000000000e+02
-1.857239516250000122e+02,-3.205402995000000033e+01,-7.135000000000000000e+02
-1.853899672500000122e+02,-3.205402995000000033e+01,-7.130000000000000000e+02
-1.857239516250000122e+02,-3.138606120000000033e+01,-7.135000000000000000e+02
-1.853899672500000122e+02,-3.138606120000000033e+01,-7.130000000000000000e+02
-1.857239516250000122e+02,-3.071809245000000033e+01,-7.265000000000000000e+02
-1.857239516250000122e+02,-3.071809245000000033e+01,-7.275000000000000000e+02
-1.853899672500000122e+02,-3.105207682500000033e+01,-7.135000000000000000e+02
-1.853899672500000122e+02,-3.071809245000000033e+01,-7.140000000000000000e+02
-1.853899672500000122e+02,-3.038410807500000033e+01,-7.275000000000000000e+02
-1.853899672500000122e+02,-3.038410807500000033e+01,-7.265000000000000000e+02
-1.857239516250000122e+02,-3.005012370000000033e+01,-7.255000000000000000e+02
-1.853899672500000122e+02,-3.005012370000000033e+01,-7.260000000000000000e+02
-1.853899672500000122e+02,-3.005012370000000033e+01,-7.140000000000000000e+02
-1.857239516250000122e+02,-2.938215495000000033e+01,-7.255000000000000000e+02
-1.853899672500000122e+02,-2.938215495000000033e+01,-7.260000000000000000e+02
-1.853899672500000122e+02,-2.971613932500000033e+01,-7.145000000000000000e+02
-1.853899672500000122e+02,-2.938215495000000033e+01,-7.150000000000000000e+02
-1.857239516250000122e+02,-2.871418620000000033e+01,-7.255000000000000000e+02
-1.853899672500000122e+02,-2.871418620000000033e+01,-7.260000000000000000e+02
-1.853899672500000122e+02,-2.871418620000000033e+01,-7.150000000000000000e+02
-1.853899672500000122e+02,-2.838020182500000033e+01,-7.255000000000000000e+02
-1.853899672500000122e+02,-2.838020182500000033e+01,-7.245000000000000000e+02
-1.853899672500000122e+02,-2.804621745000000033e+01,-7.240000000000000000e+02
-1.857239516250000122e+02,-2.804621745000000033e+01,-7.175000000000000000e+02
-1.857239516250000122e+02,-2.804621745000000033e+01,-7.155000000000000000e+02
-1.853899672500000122e+02,-2.838020182500000033e+01,-7.155000000000000000e+02
-1.853899672500000122e+02,-2.804621745000000033e+01,-7.160000000000000000e+02
-1.853899672500000122e+02,-2.737824870000000033e+01,-7.240000000000000000e+02
-1.857239516250000122e+02,-2.737824870000000033e+01,-7.185000000000000000e+02
-1.853899672500000122e+02,-2.737824870000000033e+01,-7.180000000000000000e+02
-1.853899672500000122e+02,-2.771223307500000033e+01,-7.175000000000000000e+02
-1.853899672500000122e+02,-2.771223307500000033e+01,-7.165000000000000000e+02
-1.853899672500000122e+02,-2.671027995000000033e+01,-7.240000000000000000e+02
-1.857239516250000122e+02,-2.671027995000000033e+01,-7.205000000000000000e+02
-1.853899672500000122e+02,-2.671027995000000033e+01,-7.200000000000000000e+02
-1.853899672500000122e+02,-2.704426432500000033e+01,-7.195000000000000000e+02
-1.853899672500000122e+02,-2.704426432500000033e+01,-7.185000000000000000e+02
-1.857239516250000122e+02,-2.604231120000000033e+01,-7.235000000000000000e+02
-1.853899672500000122e+02,-2.604231120000000033e+01,-7.240000000000000000e+02
-1.857239516250000122e+02,-2.604231120000000033e+01,-7.225000000000000000e+02
-1.853899672500000122e+02,-2.604231120000000033e+01,-7.220000000000000000e+02
-1.853899672500000122e+02,-2.637629557500000033e+01,-7.215000000000000000e+02
-1.853899672500000122e+02,-2.637629557500000033e+01,-7.205000000000000000e+02
-1.853899672500000122e+02,-2.570832682500000033e+01,-7.235000000000000000e+02
-1.853899672500000122e+02,-2.570832682500000033e+01,-7.225000000000000000e+02
-1.850559828750000122e+02,-3.873371745000000033e+01,-7.215000000000000000e+02
-1.847219985000000122e+02,-3.806574870000000033e+01,-7.220000000000000000e+02
-1.847219985000000122e+02,-3.839973307500000033e+01,-7.215000000000000000e+02
-1.847219985000000122e+02,-3.806574870000000033e+01,-7.210000000000000000e+02
-1.850559828750000122e+02,-3.806574870000000033e+01,-7.185000000000000000e+02
-1.847219985000000122e+02,-3.739777995000000033e+01,-7.230000000000000000e+02
-1.847219985000000122e+02,-3.773176432500000033e+01,-7.225000000000000000e+02
-1.847219985000000122e+02,-3.739777995000000033e+01,-7.210000000000000000e+02
-1.847219985000000122e+02,-3.739777995000000033e+01,-7.190000000000000000e+02
-1.847219985000000122e+02,-3.773176432500000033e+01,-7.185000000000000000e+02
-1.847219985000000122e+02,-3.739777995000000033e+01,-7.180000000000000000e+02
-1.850559828750000122e+02,-3.739777995000000033e+01,-7.155000000000000000e+02
-1.847219985000000122e+02,-3.739777995000000033e+01,-7.160000000000000000e+02
-1.847219985000000122e+02,-3.773176432500000033e+01,-7.155000000000000000e+02
-1.847219985000000122e+02,-3.739777995000000033e+01,-7.150000000000000000e+02
-1.850559828750000122e+02,-3.672981120000000033e+01,-7.235000000000000000e+02
-1.847219985000000122e+02,-3.672981120000000033e+01,-7.240000000000000000e+02
-1.847219985000000122e+02,-3.706379557500000033e+01,-7.235000000000000000e+02
-1.847219985000000122e+02,-3.706379557500000033e+01,-7.205000000000000000e+02
-1.847219985000000122e+02,-3.706379557500000033e+01,-7.195000000000000000e+02
-1.847219985000000122e+02,-3.706379557500000033e+01,-7.175000000000000000e+02
-1.847219985000000122e+02,-3.706379557500000033e+01,-7.165000000000000000e+02
-1.850559828750000122e+02,-3.672981120000000033e+01,-7.165000000000000000e+02
-1.847219985000000122e+02,-3.672981120000000033e+01,-7.150000000000000000e+02
-1.847219985000000122e+02,-3.606184245000000033e+01,-7.240000000000000000e+02
-1.847219985000000122e+02,-3.639582682500000033e+01,-7.145000000000000000e+02
-1.850559828750000122e+02,-3.606184245000000033e+01,-7.145000000000000000e+02
-1.847219985000000122e+02,-3.606184245000000033e+01,-7.140000000000000000e+02
-1.850559828750000122e+02,-3.539387370000000033e+01,-7.245000000000000000e+02
-1.847219985000000122e+02,-3.539387370000000033e+01,-7.250000000000000000e+02
-1.847219985000000122e+02,-3.572785807500000033e+01,-7.245000000000000000e+02
-1.847219985000000122e+02,-3.572785807500000033e+01,-7.145000000000000000e+02
-1.847219985000000122e+02,-3.539387370000000033e+01,-7.150000000000000000e+02
-1.847219985000000122e+02,-3.505988932500000033e+01,-7.265000000000000000e+02
-1.847219985000000122e+02,-3.505988932500000033e+01,-7.275000000000000000e+02
-1.847219985000000122e+02,-3.505988932500000033e+01,-7.255000000000000000e+02
-1.847219985000000122e+02,-3.472590495000000033e+01,-7.150000000000000000e+02
-1.847219985000000122e+02,-3.405793620000000033e+01,-7.150000000000000000e+02
-1.850559828750000122e+02,-3.338996745000000033e+01,-7.155000000000000000e+02
-1.847219985000000122e+02,-3.338996745000000033e+01,-7.150000000000000000e+02
-1.847219985000000122e+02,-3.305598307500000033e+01,-7.145000000000000000e+02
-1.850559828750000122e+02,-3.272199870000000033e+01,-7.145000000000000000e+02
-1.847219985000000122e+02,-3.305598307500000033e+01,-7.135000000000000000e+02
-1.847219985000000122e+02,-3.272199870000000033e+01,-7.130000000000000000e+02
-1.847219985000000122e+02,-3.205402995000000033e+01,-7.130000000000000000e+02
-1.850559828750000122e+02,-3.138606120000000033e+01,-7.135000000000000000e+02
-1.847219985000000122e+02,-3.172004557500000033e+01,-7.135000000000000000e+02
-1.847219985000000122e+02,-3.138606120000000033e+01,-7.140000000000000000e+02
-1.847219985000000122e+02,-3.071809245000000033e+01,-7.140000000000000000e+02
-1.847219985000000122e+02,-3.038410807500000033e+01,-7.265000000000000000e+02
-1.847219985000000122e+02,-3.038410807500000033e+01,-7.275000000000000000e+02
-1.847219985000000122e+02,-3.005012370000000033e+01,-7.260000000000000000e+02
-1.847219985000000122e+02,-3.005012370000000033e+01,-7.140000000000000000e+02
-1.847219985000000122e+02,-2.938215495000000033e+01,-7.260000000000000000e+02
-1.850559828750000122e+02,-2.938215495000000033e+01,-7.145000000000000000e+02
-1.847219985000000122e+02,-2.938215495000000033e+01,-7.140000000000000000e+02
-1.847219985000000122e+02,-2.871418620000000033e+01,-7.260000000000000000e+02
-1.847219985000000122e+02,-2.904817057500000033e+01,-7.145000000000000000e+02
-1.847219985000000122e+02,-2.871418620000000033e+01,-7.150000000000000000e+02
-1.847219985000000122e+02,-2.838020182500000033e+01,-7.255000000000000000e+02
-1.847219985000000122e+02,-2.838020182500000033e+01,-7.245000000000000000e+02
-1.847219985000000122e+02,-2.804621745000000033e+01,-7.240000000000000000e+02
-1.847219985000000122e+02,-2.838020182500000033e+01,-7.155000000000000000e+02
-1.847219985000000122e+02,-2.804621745000000033e+01,-7.160000000000000000e+02
-1.847219985000000122e+02,-2.737824870000000033e+01,-7.240000000000000000e+02
-1.847219985000000122e+02,-2.771223307500000033e+01,-7.175000000000000000e+02
-1.847219985000000122e+02,-2.737824870000000033e+01,-7.180000000000000000e+02
-1.847219985000000122e+02,-2.771223307500000033e+01,-7.165000000000000000e+02
-1.847219985000000122e+02,-2.671027995000000033e+01,-7.240000000000000000e+02
-1.850559828750000122e+02,-2.671027995000000033e+01,-7.195000000000000000e+02
-1.850559828750000122e+02,-2.671027995000000033e+01,-7.185000000000000000e+02
-1.847219985000000122e+02,-2.671027995000000033e+01,-7.180000000000000000e+02
-1.847219985000000122e+02,-2.604231120000000033e+01,-7.240000000000000000e+02
-1.850559828750000122e+02,-2.604231120000000033e+01,-7.225000000000000000e+02
-1.847219985000000122e+02,-2.637629557500000033e+01,-7.225000000000000000e+02
-1.847219985000000122e+02,-2.604231120000000033e+01,-7.230000000000000000e+02
-1.847219985000000122e+02,-2.637629557500000033e+01,-7.215000000000000000e+02
-1.847219985000000122e+02,-2.637629557500000033e+01,-7.205000000000000000e+02
-1.847219985000000122e+02,-2.637629557500000033e+01,-7.195000000000000000e+02
-1.847219985000000122e+02,-2.637629557500000033e+01,-7.185000000000000000e+02
-1.850559828750000122e+02,-2.537434245000000033e+01,-7.235000000000000000e+02
-1.847219985000000122e+02,-2.537434245000000033e+01,-7.240000000000000000e+02
-1.847219985000000122e+02,-2.537434245000000033e+01,-7.230000000000000000e+02
-1.847219985000000122e+02,-2.504035807500000033e+01,-7.235000000000000000e+02
-1.840540297500000122e+02,-3.806574870000000033e+01,-7.220000000000000000e+02
-1.840540297500000122e+02,-3.839973307500000033e+01,-7.215000000000000000e+02
-1.840540297500000122e+02,-3.806574870000000033e+01,-7.210000000000000000e+02
-1.840540297500000122e+02,-3.739777995000000033e+01,-7.230000000000000000e+02
-1.840540297500000122e+02,-3.773176432500000033e+01,-7.225000000000000000e+02
-1.840540297500000122e+02,-3.739777995000000033e+01,-7.210000000000000000e+02
-1.843880141250000122e+02,-3.739777995000000033e+01,-7.185000000000000000e+02
-1.843880141250000122e+02,-3.739777995000000033e+01,-7.165000000000000000e+02
-1.840540297500000122e+02,-3.739777995000000033e+01,-7.170000000000000000e+02
-1.840540297500000122e+02,-3.773176432500000033e+01,-7.165000000000000000e+02
-1.840540297500000122e+02,-3.773176432500000033e+01,-7.155000000000000000e+02
-1.840540297500000122e+02,-3.739777995000000033e+01,-7.150000000000000000e+02
-1.840540297500000122e+02,-3.672981120000000033e+01,-7.240000000000000000e+02
-1.840540297500000122e+02,-3.706379557500000033e+01,-7.235000000000000000e+02
-1.840540297500000122e+02,-3.706379557500000033e+01,-7.205000000000000000e+02
-1.840540297500000122e+02,-3.706379557500000033e+01,-7.195000000000000000e+02
-1.840540297500000122e+02,-3.706379557500000033e+01,-7.185000000000000000e+02
-1.840540297500000122e+02,-3.706379557500000033e+01,-7.175000000000000000e+02
-1.840540297500000122e+02,-3.706379557500000033e+01,-7.145000000000000000e+02
-1.843880141250000122e+02,-3.672981120000000033e+01,-7.145000000000000000e+02
-1.840540297500000122e+02,-3.672981120000000033e+01,-7.140000000000000000e+02
-1.840540297500000122e+02,-3.606184245000000033e+01,-7.240000000000000000e+02
-1.840540297500000122e+02,-3.606184245000000033e+01,-7.140000000000000000e+02
-1.840540297500000122e+02,-3.539387370000000033e+01,-7.250000000000000000e+02
-1.840540297500000122e+02,-3.572785807500000033e+01,-7.245000000000000000e+02
-1.843880141250000122e+02,-3.539387370000000033e+01,-7.145000000000000000e+02
-1.840540297500000122e+02,-3.539387370000000033e+01,-7.140000000000000000e+02
-1.840540297500000122e+02,-3.472590495000000033e+01,-7.270000000000000000e+02
-1.843880141250000122e+02,-3.472590495000000033e+01,-7.275000000000000000e+02
-1.840540297500000122e+02,-3.505988932500000033e+01,-7.265000000000000000e+02
-1.840540297500000122e+02,-3.505988932500000033e+01,-7.255000000000000000e+02
-1.840540297500000122e+02,-3.505988932500000033e+01,-7.145000000000000000e+02
-1.840540297500000122e+02,-3.472590495000000033e+01,-7.150000000000000000e+02
-1.840540297500000122e+02,-3.439192057500000033e+01,-7.275000000000000000e+02
-1.840540297500000122e+02,-3.405793620000000033e+01,-7.150000000000000000e+02
-1.843880141250000122e+02,-3.405793620000000033e+01,-7.125000000000000000e+02
-1.840540297500000122e+02,-3.405793620000000033e+01,-7.130000000000000000e+02
-1.840540297500000122e+02,-3.439192057500000033e+01,-7.125000000000000000e+02
-1.840540297500000122e+02,-3.372395182500000033e+01,-7.145000000000000000e+02
-1.843880141250000122e+02,-3.338996745000000033e+01,-7.145000000000000000e+02
-1.840540297500000122e+02,-3.338996745000000033e+01,-7.140000000000000000e+02
-1.843880141250000122e+02,-3.338996745000000033e+01,-7.125000000000000000e+02
-1.840540297500000122e+02,-3.338996745000000033e+01,-7.130000000000000000e+02
-1.840540297500000122e+02,-3.305598307500000033e+01,-7.135000000000000000e+02
-1.840540297500000122e+02,-3.305598307500000033e+01,-7.125000000000000000e+02
-1.840540297500000122e+02,-3.272199870000000033e+01,-7.130000000000000000e+02
-1.840540297500000122e+02,-3.205402995000000033e+01,-7.130000000000000000e+02
-1.840540297500000122e+02,-3.172004557500000033e+01,-7.135000000000000000e+02
-1.840540297500000122e+02,-3.138606120000000033e+01,-7.140000000000000000e+02
-1.843880141250000122e+02,-3.071809245000000033e+01,-7.275000000000000000e+02
-1.843880141250000122e+02,-3.071809245000000033e+01,-7.265000000000000000e+02
-1.840540297500000122e+02,-3.105207682500000033e+01,-7.265000000000000000e+02
-1.840540297500000122e+02,-3.105207682500000033e+01,-7.275000000000000000e+02
-1.840540297500000122e+02,-3.071809245000000033e+01,-7.260000000000000000e+02
-1.840540297500000122e+02,-3.071809245000000033e+01,-7.140000000000000000e+02
-1.840540297500000122e+02,-3.005012370000000033e+01,-7.260000000000000000e+02
-1.840540297500000122e+02,-3.005012370000000033e+01,-7.140000000000000000e+02
-1.840540297500000122e+02,-2.938215495000000033e+01,-7.260000000000000000e+02
-1.840540297500000122e+02,-2.938215495000000033e+01,-7.140000000000000000e+02
-1.840540297500000122e+02,-2.871418620000000033e+01,-7.260000000000000000e+02
-1.840540297500000122e+02,-2.904817057500000033e+01,-7.145000000000000000e+02
-1.840540297500000122e+02,-2.871418620000000033e+01,-7.150000000000000000e+02
-1.840540297500000122e+02,-2.838020182500000033e+01,-7.255000000000000000e+02
-1.840540297500000122e+02,-2.838020182500000033e+01,-7.245000000000000000e+02
-1.840540297500000122e+02,-2.804621745000000033e+01,-7.240000000000000000e+02
-1.843880141250000122e+02,-2.804621745000000033e+01,-7.155000000000000000e+02
-1.840540297500000122e+02,-2.804621745000000033e+01,-7.150000000000000000e+02
-1.840540297500000122e+02,-2.737824870000000033e+01,-7.240000000000000000e+02
-1.840540297500000122e+02,-2.771223307500000033e+01,-7.175000000000000000e+02
-1.840540297500000122e+02,-2.737824870000000033e+01,-7.180000000000000000e+02
-1.840540297500000122e+02,-2.771223307500000033e+01,-7.165000000000000000e+02
-1.840540297500000122e+02,-2.771223307500000033e+01,-7.155000000000000000e+02
-1.840540297500000122e+02,-2.671027995000000033e+01,-7.240000000000000000e+02
-1.840540297500000122e+02,-2.671027995000000033e+01,-7.180000000000000000e+02
-1.840540297500000122e+02,-2.604231120000000033e+01,-7.240000000000000000e+02
-1.840540297500000122e+02,-2.637629557500000033e+01,-7.225000000000000000e+02
-1.840540297500000122e+02,-2.604231120000000033e+01,-7.230000000000000000e+02
-1.840540297500000122e+02,-2.637629557500000033e+01,-7.215000000000000000e+02
-1.843880141250000122e+02,-2.604231120000000033e+01,-7.205000000000000000e+02
-1.840540297500000122e+02,-2.604231120000000033e+01,-7.210000000000000000e+02
-1.843880141250000122e+02,-2.604231120000000033e+01,-7.195000000000000000e+02
-1.840540297500000122e+02,-2.604231120000000033e+01,-7.190000000000000000e+02
-1.840540297500000122e+02,-2.637629557500000033e+01,-7.185000000000000000e+02
-1.840540297500000122e+02,-2.537434245000000033e+01,-7.240000000000000000e+02
-1.840540297500000122e+02,-2.537434245000000033e+01,-7.230000000000000000e+02
-1.840540297500000122e+02,-2.570832682500000033e+01,-7.205000000000000000e+02
-1.840540297500000122e+02,-2.570832682500000033e+01,-7.195000000000000000e+02
-1.840540297500000122e+02,-2.504035807500000033e+01,-7.235000000000000000e+02
-1.837200453750000122e+02,-3.806574870000000033e+01,-7.215000000000000000e+02
-1.837200453750000122e+02,-3.739777995000000033e+01,-7.225000000000000000e+02
-1.837200453750000122e+02,-3.739777995000000033e+01,-7.215000000000000000e+02
-1.837200453750000122e+02,-3.739777995000000033e+01,-7.165000000000000000e+02
-1.833860610000000122e+02,-3.739777995000000033e+01,-7.160000000000000000e+02
-1.833860610000000122e+02,-3.773176432500000033e+01,-7.155000000000000000e+02
-1.833860610000000122e+02,-3.739777995000000033e+01,-7.150000000000000000e+02
-1.837200453750000122e+02,-3.672981120000000033e+01,-7.235000000000000000e+02
-1.833860610000000122e+02,-3.672981120000000033e+01,-7.230000000000000000e+02
-1.833860610000000122e+02,-3.706379557500000033e+01,-7.225000000000000000e+02
-1.833860610000000122e+02,-3.706379557500000033e+01,-7.215000000000000000e+02
-1.833860610000000122e+02,-3.706379557500000033e+01,-7.205000000000000000e+02
-1.833860610000000122e+02,-3.706379557500000033e+01,-7.195000000000000000e+02
-1.833860610000000122e+02,-3.706379557500000033e+01,-7.185000000000000000e+02
-1.833860610000000122e+02,-3.706379557500000033e+01,-7.175000000000000000e+02
-1.833860610000000122e+02,-3.706379557500000033e+01,-7.165000000000000000e+02
-1.833860610000000122e+02,-3.706379557500000033e+01,-7.145000000000000000e+02
-1.833860610000000122e+02,-3.672981120000000033e+01,-7.140000000000000000e+02
-1.833860610000000122e+02,-3.606184245000000033e+01,-7.240000000000000000e+02
-1.833860610000000122e+02,-3.639582682500000033e+01,-7.235000000000000000e+02
-1.833860610000000122e+02,-3.606184245000000033e+01,-7.140000000000000000e+02
-1.833860610000000122e+02,-3.539387370000000033e+01,-7.250000000000000000e+02
-1.833860610000000122e+02,-3.572785807500000033e+01,-7.245000000000000000e+02
-1.833860610000000122e+02,-3.539387370000000033e+01,-7.140000000000000000e+02
-1.833860610000000122e+02,-3.472590495000000033e+01,-7.270000000000000000e+02
-1.833860610000000122e+02,-3.505988932500000033e+01,-7.265000000000000000e+02
-1.833860610000000122e+02,-3.505988932500000033e+01,-7.255000000000000000e+02
-1.837200453750000122e+02,-3.472590495000000033e+01,-7.145000000000000000e+02
-1.833860610000000122e+02,-3.472590495000000033e+01,-7.140000000000000000e+02
-1.833860610000000122e+02,-3.439192057500000033e+01,-7.275000000000000000e+02
-1.837200453750000122e+02,-3.405793620000000033e+01,-7.145000000000000000e+02
-1.833860610000000122e+02,-3.405793620000000033e+01,-7.140000000000000000e+02
-1.833860610000000122e+02,-3.405793620000000033e+01,-7.130000000000000000e+02
-1.833860610000000122e+02,-3.439192057500000033e+01,-7.125000000000000000e+02
-1.833860610000000122e+02,-3.372395182500000033e+01,-7.135000000000000000e+02
-1.837200453750000122e+02,-3.338996745000000033e+01,-7.135000000000000000e+02
-1.837200453750000122e+02,-3.338996745000000033e+01,-7.125000000000000000e+02
-1.833860610000000122e+02,-3.372395182500000033e+01,-7.125000000000000000e+02
-1.833860610000000122e+02,-3.338996745000000033e+01,-7.130000000000000000e+02
-1.833860610000000122e+02,-3.272199870000000033e+01,-7.130000000000000000e+02
-1.833860610000000122e+02,-3.205402995000000033e+01,-7.130000000000000000e+02
-1.833860610000000122e+02,-3.172004557500000033e+01,-7.275000000000000000e+02
-1.837200453750000122e+02,-3.138606120000000033e+01,-7.275000000000000000e+02
-1.833860610000000122e+02,-3.138606120000000033e+01,-7.270000000000000000e+02
-1.837200453750000122e+02,-3.138606120000000033e+01,-7.135000000000000000e+02
-1.833860610000000122e+02,-3.138606120000000033e+01,-7.130000000000000000e+02
-1.833860610000000122e+02,-3.105207682500000033e+01,-7.265000000000000000e+02
-1.833860610000000122e+02,-3.071809245000000033e+01,-7.260000000000000000e+02
-1.833860610000000122e+02,-3.105207682500000033e+01,-7.135000000000000000e+02
-1.833860610000000122e+02,-3.071809245000000033e+01,-7.140000000000000000e+02
