-1.609724997499999972e+02,-2.860142044999999911e+01,-7.309749766583969404e+02
-1.609724997499999972e+02,-2.860142044999999911e+01,-7.302249767156488360e+02
-1.609724997499999972e+02,-2.794907669999999911e+01,-7.362249762576335570e+02
-1.609724997499999972e+02,-2.794907669999999911e+01,-7.354749763148854527e+02
-1.609724997499999972e+02,-2.794907669999999911e+01,-7.309749766583969404e+02
-1.612986716249999972e+02,-2.794907669999999911e+01,-7.305999766870228314e+02
-1.609724997499999972e+02,-2.794907669999999911e+01,-7.302249767156488360e+02
-1.609724997499999972e+02,-2.762290482499999911e+01,-7.358499762862595617e+02
-1.609724997499999972e+02,-2.762290482499999911e+01,-7.305999766870228314e+02
-1.603201559999999972e+02,-3.969126419999999911e+01,-7.317249766011450447e+02
-1.603201559999999972e+02,-4.001743607499999911e+01,-7.313499766297709357e+02
-1.603201559999999972e+02,-3.969126419999999911e+01,-7.309749766583969404e+02
-1.603201559999999972e+02,-3.903892044999999911e+01,-7.332249764866411397e+02
-1.603201559999999972e+02,-3.936509232499999911e+01,-7.328499765152671444e+02
-1.603201559999999972e+02,-3.936509232499999911e+01,-7.320999765725190400e+02
-1.606463278749999972e+02,-3.903892044999999911e+01,-7.305999766870228314e+02
-1.603201559999999972e+02,-3.903892044999999911e+01,-7.309749766583969404e+02
-1.606463278749999972e+02,-3.903892044999999911e+01,-7.298499767442747270e+02
-1.603201559999999972e+02,-3.838657669999999911e+01,-7.339749764293892440e+02
-1.603201559999999972e+02,-3.871274857499999911e+01,-7.335999764580152487e+02
-1.603201559999999972e+02,-3.871274857499999911e+01,-7.305999766870228314e+02
-1.603201559999999972e+02,-3.871274857499999911e+01,-7.298499767442747270e+02
-1.603201559999999972e+02,-3.871274857499999911e+01,-7.290999768015267364e+02
-1.606463278749999972e+02,-3.838657669999999911e+01,-7.283499768587786320e+02
-1.603201559999999972e+02,-3.838657669999999911e+01,-7.287249768301526274e+02
-1.606463278749999972e+02,-3.838657669999999911e+01,-7.275999769160305277e+02
-1.606463278749999972e+02,-3.838657669999999911e+01,-7.268499769732824234e+02
-1.606463278749999972e+02,-3.773423294999999911e+01,-7.365999762290075523e+02
-1.603201559999999972e+02,-3.773423294999999911e+01,-7.347249763721373483e+02
-1.603201559999999972e+02,-3.806040482499999911e+01,-7.343499764007633530e+02
-1.603201559999999972e+02,-3.806040482499999911e+01,-7.283499768587786320e+02
-1.603201559999999972e+02,-3.806040482499999911e+01,-7.275999769160305277e+02
-1.603201559999999972e+02,-3.806040482499999911e+01,-7.268499769732824234e+02
-1.606463278749999972e+02,-3.773423294999999911e+01,-7.260999770305343191e+02
-1.603201559999999972e+02,-3.773423294999999911e+01,-7.264749770019083144e+02
-1.606463278749999972e+02,-3.708188919999999911e+01,-7.365999762290075523e+02
-1.603201559999999972e+02,-3.708188919999999911e+01,-7.347249763721373483e+02
-1.603201559999999972e+02,-3.740806107499999911e+01,-7.260999770305343191e+02
-1.603201559999999972e+02,-3.708188919999999911e+01,-7.257249770591603237e+02
-1.603201559999999972e+02,-3.642954544999999911e+01,-7.354749763148854527e+02
-1.603201559999999972e+02,-3.675571732499999911e+01,-7.350999763435114573e+02
-1.603201559999999972e+02,-3.675571732499999911e+01,-7.253499770877862147e+02
-1.603201559999999972e+02,-3.642954544999999911e+01,-7.249749771164122194e+02
-1.603201559999999972e+02,-3.577720169999999911e+01,-7.354749763148854527e+02
-1.606463278749999972e+02,-3.577720169999999911e+01,-7.245999771450381104e+02
-1.603201559999999972e+02,-3.577720169999999911e+01,-7.249749771164122194e+02
-1.603201559999999972e+02,-3.512485794999999911e+01,-7.354749763148854527e+02
-1.606463278749999972e+02,-3.512485794999999911e+01,-7.245999771450381104e+02
-1.603201559999999972e+02,-3.512485794999999911e+01,-7.249749771164122194e+02
-1.606463278749999972e+02,-3.447251419999999911e+01,-7.395999759999999696e+02
-1.603201559999999972e+02,-3.479868607499999911e+01,-7.395999759999999696e+02
-1.603201559999999972e+02,-3.479868607499999911e+01,-7.388499760572518653e+02
-1.603201559999999972e+02,-3.479868607499999911e+01,-7.380999761145037610e+02
-1.603201559999999972e+02,-3.447251419999999911e+01,-7.377249761431297657e+02
-1.603201559999999972e+02,-3.447251419999999911e+01,-7.369749762003816613e+02
-1.603201559999999972e+02,-3.479868607499999911e+01,-7.365999762290075523e+02
-1.603201559999999972e+02,-3.479868607499999911e+01,-7.358499762862595617e+02
-1.606463278749999972e+02,-3.447251419999999911e+01,-7.245999771450381104e+02
-1.603201559999999972e+02,-3.447251419999999911e+01,-7.249749771164122194e+02
-1.603201559999999972e+02,-3.414634232499999911e+01,-7.373499761717556567e+02
-1.603201559999999972e+02,-3.382017044999999911e+01,-7.249749771164122194e+02
-1.603201559999999972e+02,-3.316782669999999911e+01,-7.249749771164122194e+02
-1.603201559999999972e+02,-3.284165482499999911e+01,-7.275999769160305277e+02
-1.603201559999999972e+02,-3.251548294999999911e+01,-7.279749768874045230e+02
-1.603201559999999972e+02,-3.284165482499999911e+01,-7.268499769732824234e+02
-1.603201559999999972e+02,-3.284165482499999911e+01,-7.260999770305343191e+02
-1.603201559999999972e+02,-3.284165482499999911e+01,-7.253499770877862147e+02
-1.603201559999999972e+02,-3.218931107499999911e+01,-7.395999759999999696e+02
-1.603201559999999972e+02,-3.186313919999999911e+01,-7.392249760286259743e+02
-1.603201559999999972e+02,-3.186313919999999911e+01,-7.279749768874045230e+02
-1.603201559999999972e+02,-3.121079544999999911e+01,-7.392249760286259743e+02
-1.606463278749999972e+02,-3.121079544999999911e+01,-7.283499768587786320e+02
-1.603201559999999972e+02,-3.153696732499999911e+01,-7.283499768587786320e+02
-1.603201559999999972e+02,-3.121079544999999911e+01,-7.287249768301526274e+02
-1.606463278749999972e+02,-3.055845169999999911e+01,-7.388499760572518653e+02
-1.603201559999999972e+02,-3.055845169999999911e+01,-7.392249760286259743e+02
-1.603201559999999972e+02,-3.055845169999999911e+01,-7.287249768301526274e+02
-1.603201559999999972e+02,-3.023227982499999911e+01,-7.388499760572518653e+02
-1.606463278749999972e+02,-2.990610794999999911e+01,-7.380999761145037610e+02
-1.603201559999999972e+02,-2.990610794999999911e+01,-7.384749760858778700e+02
-1.606463278749999972e+02,-2.990610794999999911e+01,-7.373499761717556567e+02
-1.603201559999999972e+02,-3.023227982499999911e+01,-7.298499767442747270e+02
-1.603201559999999972e+02,-2.990610794999999911e+01,-7.302249767156488360e+02
-1.603201559999999972e+02,-3.023227982499999911e+01,-7.290999768015267364e+02
-1.603201559999999972e+02,-2.957993607499999911e+01,-7.380999761145037610e+02
-1.603201559999999972e+02,-2.957993607499999911e+01,-7.373499761717556567e+02
-1.603201559999999972e+02,-2.925376419999999911e+01,-7.369749762003816613e+02
-1.606463278749999972e+02,-2.925376419999999911e+01,-7.343499764007633530e+02
-1.603201559999999972e+02,-2.957993607499999911e+01,-7.343499764007633530e+02
-1.603201559999999972e+02,-2.925376419999999911e+01,-7.347249763721373483e+02
-1.603201559999999972e+02,-2.925376419999999911e+01,-7.339749764293892440e+02
-1.603201559999999972e+02,-2.957993607499999911e+01,-7.328499765152671444e+02
-1.603201559999999972e+02,-2.925376419999999911e+01,-7.332249764866411397e+02
-1.603201559999999972e+02,-2.957993607499999911e+01,-7.320999765725190400e+02
-1.603201559999999972e+02,-2.925376419999999911e+01,-7.317249766011450447e+02
-1.603201559999999972e+02,-2.925376419999999911e+01,-7.302249767156488360e+02
-1.606463278749999972e+02,-2.860142044999999911e+01,-7.365999762290075523e+02
-1.603201559999999972e+02,-2.860142044999999911e+01,-7.369749762003816613e+02
-1.603201559999999972e+02,-2.892759232499999911e+01,-7.350999763435114573e+02
-1.603201559999999972e+02,-2.860142044999999911e+01,-7.354749763148854527e+02
-1.603201559999999972e+02,-2.892759232499999911e+01,-7.335999764580152487e+02
-1.603201559999999972e+02,-2.892759232499999911e+01,-7.313499766297709357e+02
-1.603201559999999972e+02,-2.860142044999999911e+01,-7.309749766583969404e+02
-1.603201559999999972e+02,-2.860142044999999911e+01,-7.302249767156488360e+02
-1.606463278749999972e+02,-2.794907669999999911e+01,-7.365999762290075523e+02
-1.603201559999999972e+02,-2.794907669999999911e+01,-7.369749762003816613e+02
-1.603201559999999972e+02,-2.794907669999999911e+01,-7.354749763148854527e+02
-1.603201559999999972e+02,-2.794907669999999911e+01,-7.309749766583969404e+02
-1.603201559999999972e+02,-2.794907669999999911e+01,-7.302249767156488360e+02
-1.603201559999999972e+02,-2.762290482499999911e+01,-7.365999762290075523e+02
-1.603201559999999972e+02,-2.762290482499999911e+01,-7.358499762862595617e+02
-1.603201559999999972e+02,-2.762290482499999911e+01,-7.305999766870228314e+02
-1.599939841249999972e+02,-3.969126419999999911e+01,-7.313499766297709357e+02
-1.596678122499999972e+02,-3.903892044999999911e+01,-7.332249764866411397e+02
-1.596678122499999972e+02,-3.936509232499999911e+01,-7.328499765152671444e+02
-1.599939841249999972e+02,-3.903892044999999911e+01,-7.320999765725190400e+02
-1.596678122499999972e+02,-3.903892044999999911e+01,-7.324749765438931490e+02
-1.596678122499999972e+02,-3.903892044999999911e+01,-7.317249766011450447e+02
-1.596678122499999972e+02,-3.936509232499999911e+01,-7.313499766297709357e+02
-1.596678122499999972e+02,-3.903892044999999911e+01,-7.309749766583969404e+02
-1.596678122499999972e+02,-3.838657669999999911e+01,-7.339749764293892440e+02
-1.596678122499999972e+02,-3.871274857499999911e+01,-7.335999764580152487e+02
-1.596678122499999972e+02,-3.871274857499999911e+01,-7.320999765725190400e+02
-1.596678122499999972e+02,-3.871274857499999911e+01,-7.305999766870228314e+02
-1.596678122499999972e+02,-3.871274857499999911e+01,-7.298499767442747270e+02
-1.596678122499999972e+02,-3.871274857499999911e+01,-7.290999768015267364e+02
-1.596678122499999972e+02,-3.838657669999999911e+01,-7.287249768301526274e+02
-1.596678122499999972e+02,-3.773423294999999911e+01,-7.347249763721373483e+02
-1.596678122499999972e+02,-3.806040482499999911e+01,-7.343499764007633530e+02
-1.596678122499999972e+02,-3.806040482499999911e+01,-7.283499768587786320e+02
-1.599939841249999972e+02,-3.773423294999999911e+01,-7.275999769160305277e+02
-1.596678122499999972e+02,-3.773423294999999911e+01,-7.279749768874045230e+02
-1.599939841249999972e+02,-3.773423294999999911e+01,-7.268499769732824234e+02
-1.599939841249999972e+02,-3.708188919999999911e+01,-7.350999763435114573e+02
-1.596678122499999972e+02,-3.708188919999999911e+01,-7.354749763148854527e+02
-1.596678122499999972e+02,-3.740806107499999911e+01,-7.350999763435114573e+02
-1.596678122499999972e+02,-3.740806107499999911e+01,-7.275999769160305277e+02
-1.596678122499999972e+02,-3.740806107499999911e+01,-7.268499769732824234e+02
-1.599939841249999972e+02,-3.708188919999999911e+01,-7.260999770305343191e+02
-1.596678122499999972e+02,-3.708188919999999911e+01,-7.264749770019083144e+02
-1.596678122499999972e+02,-3.642954544999999911e+01,-7.354749763148854527e+02
-1.596678122499999972e+02,-3.675571732499999911e+01,-7.260999770305343191e+02
-1.599939841249999972e+02,-3.642954544999999911e+01,-7.253499770877862147e+02
-1.596678122499999972e+02,-3.642954544999999911e+01,-7.257249770591603237e+02
-1.596678122499999972e+02,-3.577720169999999911e+01,-7.354749763148854527e+02
-1.599939841249999972e+02,-3.577720169999999911e+01,-7.253499770877862147e+02
-1.596678122499999972e+02,-3.577720169999999911e+01,-7.257249770591603237e+02
-1.596678122499999972e+02,-3.512485794999999911e+01,-7.354749763148854527e+02
-1.599939841249999972e+02,-3.512485794999999911e+01,-7.253499770877862147e+02
-1.596678122499999972e+02,-3.512485794999999911e+01,-7.257249770591603237e+02
-1.596678122499999972e+02,-3.479868607499999911e+01,-7.388499760572518653e+02
-1.596678122499999972e+02,-3.479868607499999911e+01,-7.395999759999999696e+02
-1.596678122499999972e+02,-3.479868607499999911e+01,-7.380999761145037610e+02
-1.596678122499999972e+02,-3.447251419999999911e+01,-7.377249761431297657e+02
-1.596678122499999972e+02,-3.447251419999999911e+01,-7.369749762003816613e+02
-1.596678122499999972e+02,-3.479868607499999911e+01,-7.365999762290075523e+02
-1.596678122499999972e+02,-3.479868607499999911e+01,-7.358499762862595617e+02
-1.599939841249999972e+02,-3.447251419999999911e+01,-7.253499770877862147e+02
-1.596678122499999972e+02,-3.447251419999999911e+01,-7.257249770591603237e+02
-1.596678122499999972e+02,-3.414634232499999911e+01,-7.373499761717556567e+02
-1.599939841249999972e+02,-3.382017044999999911e+01,-7.253499770877862147e+02
-1.596678122499999972e+02,-3.382017044999999911e+01,-7.257249770591603237e+02
-1.599939841249999972e+02,-3.316782669999999911e+01,-7.275999769160305277e+02
-1.596678122499999972e+02,-3.349399857499999911e+01,-7.275999769160305277e+02
-1.596678122499999972e+02,-3.316782669999999911e+01,-7.279749768874045230e+02
-1.599939841249999972e+02,-3.316782669999999911e+01,-7.268499769732824234e+02
-1.596678122499999972e+02,-3.349399857499999911e+01,-7.268499769732824234e+02
-1.599939841249999972e+02,-3.316782669999999911e+01,-7.260999770305343191e+02
-1.596678122499999972e+02,-3.349399857499999911e+01,-7.260999770305343191e+02
-1.599939841249999972e+02,-3.316782669999999911e+01,-7.253499770877862147e+02
-1.596678122499999972e+02,-3.284165482499999911e+01,-7.395999759999999696e+02
-1.599939841249999972e+02,-3.251548294999999911e+01,-7.395999759999999696e+02
-1.596678122499999972e+02,-3.251548294999999911e+01,-7.392249760286259743e+02
-1.596678122499999972e+02,-3.251548294999999911e+01,-7.279749768874045230e+02
-1.596678122499999972e+02,-3.186313919999999911e+01,-7.392249760286259743e+02
-1.596678122499999972e+02,-3.186313919999999911e+01,-7.279749768874045230e+02
-1.596678122499999972e+02,-3.121079544999999911e+01,-7.392249760286259743e+02
-1.596678122499999972e+02,-3.153696732499999911e+01,-7.283499768587786320e+02
-1.596678122499999972e+02,-3.121079544999999911e+01,-7.287249768301526274e+02
-1.596678122499999972e+02,-3.088462357499999911e+01,-7.388499760572518653e+02
-1.599939841249999972e+02,-3.055845169999999911e+01,-7.388499760572518653e+02
-1.596678122499999972e+02,-3.055845169999999911e+01,-7.384749760858778700e+02
-1.599939841249999972e+02,-3.055845169999999911e+01,-7.290999768015267364e+02
-1.596678122499999972e+02,-3.088462357499999911e+01,-7.290999768015267364e+02
-1.596678122499999972e+02,-3.055845169999999911e+01,-7.294749767729007317e+02
-1.596678122499999972e+02,-2.990610794999999911e+01,-7.384749760858778700e+02
-1.596678122499999972e+02,-3.023227982499999911e+01,-7.298499767442747270e+02
-1.596678122499999972e+02,-2.990610794999999911e+01,-7.302249767156488360e+02
-1.596678122499999972e+02,-2.957993607499999911e+01,-7.380999761145037610e+02
-1.596678122499999972e+02,-2.957993607499999911e+01,-7.373499761717556567e+02
-1.596678122499999972e+02,-2.925376419999999911e+01,-7.369749762003816613e+02
-1.596678122499999972e+02,-2.957993607499999911e+01,-7.343499764007633530e+02
-1.596678122499999972e+02,-2.925376419999999911e+01,-7.347249763721373483e+02
-1.596678122499999972e+02,-2.925376419999999911e+01,-7.339749764293892440e+02
-1.596678122499999972e+02,-2.957993607499999911e+01,-7.328499765152671444e+02
-1.596678122499999972e+02,-2.925376419999999911e+01,-7.332249764866411397e+02
-1.596678122499999972e+02,-2.957993607499999911e+01,-7.320999765725190400e+02
-1.599939841249999972e+02,-2.925376419999999911e+01,-7.313499766297709357e+02
-1.596678122499999972e+02,-2.957993607499999911e+01,-7.313499766297709357e+02
-1.596678122499999972e+02,-2.925376419999999911e+01,-7.309749766583969404e+02
-1.596678122499999972e+02,-2.925376419999999911e+01,-7.302249767156488360e+02
-1.596678122499999972e+02,-2.860142044999999911e+01,-7.369749762003816613e+02
-1.596678122499999972e+02,-2.892759232499999911e+01,-7.350999763435114573e+02
-1.596678122499999972e+02,-2.860142044999999911e+01,-7.354749763148854527e+02
-1.596678122499999972e+02,-2.892759232499999911e+01,-7.335999764580152487e+02
-1.599939841249999972e+02,-2.860142044999999911e+01,-7.305999766870228314e+02
-1.596678122499999972e+02,-2.892759232499999911e+01,-7.305999766870228314e+02
-1.596678122499999972e+02,-2.794907669999999911e+01,-7.369749762003816613e+02
-1.599939841249999972e+02,-2.794907669999999911e+01,-7.358499762862595617e+02
-1.596678122499999972e+02,-2.827524857499999911e+01,-7.358499762862595617e+02
-1.596678122499999972e+02,-2.794907669999999911e+01,-7.362249762576335570e+02
-1.599939841249999972e+02,-2.794907669999999911e+01,-7.305999766870228314e+02
-1.596678122499999972e+02,-2.762290482499999911e+01,-7.365999762290075523e+02
-1.590154684999999972e+02,-3.903892044999999911e+01,-7.332249764866411397e+02
-1.590154684999999972e+02,-3.936509232499999911e+01,-7.328499765152671444e+02
-1.590154684999999972e+02,-3.903892044999999911e+01,-7.324749765438931490e+02
-1.590154684999999972e+02,-3.903892044999999911e+01,-7.317249766011450447e+02
-1.590154684999999972e+02,-3.936509232499999911e+01,-7.313499766297709357e+02
-1.590154684999999972e+02,-3.903892044999999911e+01,-7.309749766583969404e+02
-1.590154684999999972e+02,-3.838657669999999911e+01,-7.339749764293892440e+02
-1.590154684999999972e+02,-3.871274857499999911e+01,-7.335999764580152487e+02
-1.590154684999999972e+02,-3.871274857499999911e+01,-7.320999765725190400e+02
-1.590154684999999972e+02,-3.871274857499999911e+01,-7.305999766870228314e+02
-1.590154684999999972e+02,-3.871274857499999911e+01,-7.298499767442747270e+02
-1.590154684999999972e+02,-3.871274857499999911e+01,-7.290999768015267364e+02
-1.590154684999999972e+02,-3.838657669999999911e+01,-7.287249768301526274e+02
-1.590154684999999972e+02,-3.773423294999999911e+01,-7.347249763721373483e+02
-1.590154684999999972e+02,-3.806040482499999911e+01,-7.343499764007633530e+02
-1.593416403749999972e+02,-3.773423294999999911e+01,-7.283499768587786320e+02
-1.590154684999999972e+02,-3.773423294999999911e+01,-7.287249768301526274e+02
-1.590154684999999972e+02,-3.708188919999999911e+01,-7.354749763148854527e+02
-1.590154684999999972e+02,-3.740806107499999911e+01,-7.350999763435114573e+02
-1.590154684999999972e+02,-3.740806107499999911e+01,-7.283499768587786320e+02
-1.590154684999999972e+02,-3.740806107499999911e+01,-7.275999769160305277e+02
-1.593416403749999972e+02,-3.708188919999999911e+01,-7.268499769732824234e+02
-1.590154684999999972e+02,-3.708188919999999911e+01,-7.272249769446564187e+02
-1.590154684999999972e+02,-3.642954544999999911e+01,-7.354749763148854527e+02
-1.593416403749999972e+02,-3.642954544999999911e+01,-7.268499769732824234e+02
-1.590154684999999972e+02,-3.642954544999999911e+01,-7.272249769446564187e+02
-1.593416403749999972e+02,-3.642954544999999911e+01,-7.260999770305343191e+02
-1.590154684999999972e+02,-3.577720169999999911e+01,-7.354749763148854527e+02
-1.590154684999999972e+02,-3.610337357499999911e+01,-7.268499769732824234e+02
-1.590154684999999972e+02,-3.577720169999999911e+01,-7.264749770019083144e+02
-1.593416403749999972e+02,-3.577720169999999911e+01,-7.260999770305343191e+02
-1.590154684999999972e+02,-3.512485794999999911e+01,-7.354749763148854527e+02
-1.593416403749999972e+02,-3.512485794999999911e+01,-7.260999770305343191e+02
-1.590154684999999972e+02,-3.512485794999999911e+01,-7.264749770019083144e+02
-1.590154684999999972e+02,-3.479868607499999911e+01,-7.388499760572518653e+02
-1.590154684999999972e+02,-3.479868607499999911e+01,-7.395999759999999696e+02
-1.590154684999999972e+02,-3.479868607499999911e+01,-7.380999761145037610e+02
-1.590154684999999972e+02,-3.447251419999999911e+01,-7.377249761431297657e+02
-1.593416403749999972e+02,-3.447251419999999911e+01,-7.365999762290075523e+02
-1.593416403749999972e+02,-3.447251419999999911e+01,-7.358499762862595617e+02
-1.590154684999999972e+02,-3.447251419999999911e+01,-7.354749763148854527e+02
-1.593416403749999972e+02,-3.447251419999999911e+01,-7.260999770305343191e+02
-1.590154684999999972e+02,-3.447251419999999911e+01,-7.264749770019083144e+02
-1.590154684999999972e+02,-3.414634232499999911e+01,-7.373499761717556567e+02
-1.590154684999999972e+02,-3.414634232499999911e+01,-7.365999762290075523e+02
-1.590154684999999972e+02,-3.414634232499999911e+01,-7.358499762862595617e+02
-1.593416403749999972e+02,-3.382017044999999911e+01,-7.260999770305343191e+02
-1.590154684999999972e+02,-3.382017044999999911e+01,-7.264749770019083144e+02
-1.590154684999999972e+02,-3.349399857499999911e+01,-7.395999759999999696e+02
-1.593416403749999972e+02,-3.316782669999999911e+01,-7.395999759999999696e+02
-1.590154684999999972e+02,-3.316782669999999911e+01,-7.392249760286259743e+02
-1.590154684999999972e+02,-3.349399857499999911e+01,-7.275999769160305277e+02
-1.590154684999999972e+02,-3.316782669999999911e+01,-7.279749768874045230e+02
-1.590154684999999972e+02,-3.349399857499999911e+01,-7.268499769732824234e+02
-1.593416403749999972e+02,-3.251548294999999911e+01,-7.388499760572518653e+02
-1.590154684999999972e+02,-3.284165482499999911e+01,-7.388499760572518653e+02
-1.590154684999999972e+02,-3.251548294999999911e+01,-7.384749760858778700e+02
-1.590154684999999972e+02,-3.251548294999999911e+01,-7.279749768874045230e+02
-1.593416403749999972e+02,-3.186313919999999911e+01,-7.388499760572518653e+02
-1.590154684999999972e+02,-3.186313919999999911e+01,-7.384749760858778700e+02
-1.590154684999999972e+02,-3.186313919999999911e+01,-7.279749768874045230e+02
-1.593416403749999972e+02,-3.121079544999999911e+01,-7.388499760572518653e+02
-1.590154684999999972e+02,-3.121079544999999911e+01,-7.384749760858778700e+02
-1.590154684999999972e+02,-3.153696732499999911e+01,-7.283499768587786320e+02
-1.590154684999999972e+02,-3.121079544999999911e+01,-7.287249768301526274e+02
-1.593416403749999972e+02,-3.055845169999999911e+01,-7.380999761145037610e+02
-1.590154684999999972e+02,-3.088462357499999911e+01,-7.380999761145037610e+02
-1.590154684999999972e+02,-3.055845169999999911e+01,-7.377249761431297657e+02
-1.590154684999999972e+02,-3.088462357499999911e+01,-7.290999768015267364e+02
-1.590154684999999972e+02,-3.055845169999999911e+01,-7.294749767729007317e+02
-1.593416403749999972e+02,-2.990610794999999911e+01,-7.380999761145037610e+02
-1.590154684999999972e+02,-3.023227982499999911e+01,-7.373499761717556567e+02
-1.593416403749999972e+02,-2.990610794999999911e+01,-7.373499761717556567e+02
-1.590154684999999972e+02,-2.990610794999999911e+01,-7.369749762003816613e+02
-1.593416403749999972e+02,-2.990610794999999911e+01,-7.343499764007633530e+02
-1.590154684999999972e+02,-3.023227982499999911e+01,-7.343499764007633530e+02
-1.590154684999999972e+02,-2.990610794999999911e+01,-7.347249763721373483e+02
-1.590154684999999972e+02,-2.990610794999999911e+01,-7.339749764293892440e+02
-1.590154684999999972e+02,-3.023227982499999911e+01,-7.298499767442747270e+02
-1.590154684999999972e+02,-2.990610794999999911e+01,-7.302249767156488360e+02
-1.590154684999999972e+02,-2.925376419999999911e+01,-7.369749762003816613e+02
-1.590154684999999972e+02,-2.925376419999999911e+01,-7.347249763721373483e+02
-1.590154684999999972e+02,-2.925376419999999911e+01,-7.339749764293892440e+02
-1.593416403749999972e+02,-2.925376419999999911e+01,-7.328499765152671444e+02
-1.590154684999999972e+02,-2.925376419999999911e+01,-7.324749765438931490e+02
-1.590154684999999972e+02,-2.957993607499999911e+01,-7.320999765725190400e+02
-1.590154684999999972e+02,-2.957993607499999911e+01,-7.313499766297709357e+02
-1.593416403749999972e+02,-2.925376419999999911e+01,-7.305999766870228314e+02
-1.590154684999999972e+02,-2.957993607499999911e+01,-7.305999766870228314e+02
-1.590154684999999972e+02,-2.860142044999999911e+01,-7.369749762003816613e+02
-1.593416403749999972e+02,-2.860142044999999911e+01,-7.358499762862595617e+02
-1.590154684999999972e+02,-2.892759232499999911e+01,-7.358499762862595617e+02
-1.590154684999999972e+02,-2.860142044999999911e+01,-7.362249762576335570e+02
-1.590154684999999972e+02,-2.892759232499999911e+01,-7.350999763435114573e+02
-1.590154684999999972e+02,-2.892759232499999911e+01,-7.335999764580152487e+02
-1.590154684999999972e+02,-2.892759232499999911e+01,-7.328499765152671444e+02
-1.590154684999999972e+02,-2.794907669999999911e+01,-7.369749762003816613e+02
-1.590154684999999972e+02,-2.794907669999999911e+01,-7.362249762576335570e+02
-1.590154684999999972e+02,-2.762290482499999911e+01,-7.365999762290075523e+02
-1.586892966249999972e+02,-3.903892044999999911e+01,-7.328499765152671444e+02
-1.586892966249999972e+02,-3.903892044999999911e+01,-7.313499766297709357e+02
-1.586892966249999972e+02,-3.838657669999999911e+01,-7.343499764007633530e+02
-1.583631247499999972e+02,-3.838657669999999911e+01,-7.347249763721373483e+02
-1.583631247499999972e+02,-3.871274857499999911e+01,-7.343499764007633530e+02
-1.583631247499999972e+02,-3.871274857499999911e+01,-7.335999764580152487e+02
-1.583631247499999972e+02,-3.871274857499999911e+01,-7.328499765152671444e+02
-1.586892966249999972e+02,-3.838657669999999911e+01,-7.320999765725190400e+02
-1.583631247499999972e+02,-3.838657669999999911e+01,-7.324749765438931490e+02
-1.583631247499999972e+02,-3.838657669999999911e+01,-7.317249766011450447e+02
-1.583631247499999972e+02,-3.871274857499999911e+01,-7.313499766297709357e+02
-1.586892966249999972e+02,-3.838657669999999911e+01,-7.305999766870228314e+02
-1.583631247499999972e+02,-3.838657669999999911e+01,-7.309749766583969404e+02
-1.583631247499999972e+02,-3.838657669999999911e+01,-7.302249767156488360e+02
-1.583631247499999972e+02,-3.871274857499999911e+01,-7.298499767442747270e+02
-1.586892966249999972e+02,-3.838657669999999911e+01,-7.290999768015267364e+02
-1.583631247499999972e+02,-3.838657669999999911e+01,-7.294749767729007317e+02
-1.583631247499999972e+02,-3.773423294999999911e+01,-7.347249763721373483e+02
-1.583631247499999972e+02,-3.806040482499999911e+01,-7.320999765725190400e+02
-1.583631247499999972e+02,-3.806040482499999911e+01,-7.305999766870228314e+02
-1.583631247499999972e+02,-3.806040482499999911e+01,-7.290999768015267364e+02
-1.583631247499999972e+02,-3.773423294999999911e+01,-7.287249768301526274e+02
-1.586892966249999972e+02,-3.708188919999999911e+01,-7.350999763435114573e+02
-1.583631247499999972e+02,-3.708188919999999911e+01,-7.347249763721373483e+02
-1.583631247499999972e+02,-3.740806107499999911e+01,-7.283499768587786320e+02
-1.586892966249999972e+02,-3.708188919999999911e+01,-7.275999769160305277e+02
-1.583631247499999972e+02,-3.708188919999999911e+01,-7.279749768874045230e+02
-1.583631247499999972e+02,-3.642954544999999911e+01,-7.354749763148854527e+02
-1.583631247499999972e+02,-3.675571732499999911e+01,-7.350999763435114573e+02
-1.583631247499999972e+02,-3.675571732499999911e+01,-7.275999769160305277e+02
-1.583631247499999972e+02,-3.642954544999999911e+01,-7.272249769446564187e+02
-1.583631247499999972e+02,-3.577720169999999911e+01,-7.354749763148854527e+02
-1.586892966249999972e+02,-3.577720169999999911e+01,-7.268499769732824234e+02
-1.583631247499999972e+02,-3.577720169999999911e+01,-7.272249769446564187e+02
-1.586892966249999972e+02,-3.512485794999999911e+01,-7.388499760572518653e+02
-1.583631247499999972e+02,-3.512485794999999911e+01,-7.392249760286259743e+02
-1.583631247499999972e+02,-3.545102982499999911e+01,-7.388499760572518653e+02
-1.583631247499999972e+02,-3.545102982499999911e+01,-7.380999761145037610e+02
-1.586892966249999972e+02,-3.512485794999999911e+01,-7.380999761145037610e+02
-1.583631247499999972e+02,-3.512485794999999911e+01,-7.377249761431297657e+02
-1.583631247499999972e+02,-3.512485794999999911e+01,-7.354749763148854527e+02
-1.583631247499999972e+02,-3.545102982499999911e+01,-7.268499769732824234e+02
-1.583631247499999972e+02,-3.512485794999999911e+01,-7.264749770019083144e+02
-1.583631247499999972e+02,-3.447251419999999911e+01,-7.392249760286259743e+02
-1.586892966249999972e+02,-3.447251419999999911e+01,-7.395999759999999696e+02
-1.583631247499999972e+02,-3.479868607499999911e+01,-7.373499761717556567e+02
-1.586892966249999972e+02,-3.447251419999999911e+01,-7.373499761717556567e+02
-1.583631247499999972e+02,-3.447251419999999911e+01,-7.369749762003816613e+02
-1.583631247499999972e+02,-3.447251419999999911e+01,-7.354749763148854527e+02
-1.586892966249999972e+02,-3.447251419999999911e+01,-7.268499769732824234e+02
-1.583631247499999972e+02,-3.479868607499999911e+01,-7.268499769732824234e+02
-1.583631247499999972e+02,-3.447251419999999911e+01,-7.272249769446564187e+02
-1.583631247499999972e+02,-3.382017044999999911e+01,-7.392249760286259743e+02
-1.586892966249999972e+02,-3.382017044999999911e+01,-7.395999759999999696e+02
-1.583631247499999972e+02,-3.414634232499999911e+01,-7.365999762290075523e+02
-1.583631247499999972e+02,-3.414634232499999911e+01,-7.358499762862595617e+02
-1.586892966249999972e+02,-3.382017044999999911e+01,-7.268499769732824234e+02
-1.583631247499999972e+02,-3.382017044999999911e+01,-7.272249769446564187e+02
-1.586892966249999972e+02,-3.316782669999999911e+01,-7.388499760572518653e+02
-1.583631247499999972e+02,-3.349399857499999911e+01,-7.388499760572518653e+02
-1.583631247499999972e+02,-3.316782669999999911e+01,-7.384749760858778700e+02
-1.583631247499999972e+02,-3.349399857499999911e+01,-7.275999769160305277e+02
-1.583631247499999972e+02,-3.316782669999999911e+01,-7.279749768874045230e+02
-1.586892966249999972e+02,-3.251548294999999911e+01,-7.380999761145037610e+02
-1.583631247499999972e+02,-3.284165482499999911e+01,-7.380999761145037610e+02
-1.586892966249999972e+02,-3.251548294999999911e+01,-7.373499761717556567e+02
-1.583631247499999972e+02,-3.284165482499999911e+01,-7.373499761717556567e+02
-1.583631247499999972e+02,-3.251548294999999911e+01,-7.369749762003816613e+02
-1.583631247499999972e+02,-3.251548294999999911e+01,-7.279749768874045230e+02
-1.586892966249999972e+02,-3.186313919999999911e+01,-7.380999761145037610e+02
-1.586892966249999972e+02,-3.186313919999999911e+01,-7.373499761717556567e+02
-1.583631247499999972e+02,-3.186313919999999911e+01,-7.369749762003816613e+02
-1.583631247499999972e+02,-3.186313919999999911e+01,-7.279749768874045230e+02
-1.586892966249999972e+02,-3.121079544999999911e+01,-7.380999761145037610e+02
-1.586892966249999972e+02,-3.121079544999999911e+01,-7.373499761717556567e+02
-1.583631247499999972e+02,-3.121079544999999911e+01,-7.369749762003816613e+02
-1.583631247499999972e+02,-3.153696732499999911e+01,-7.283499768587786320e+02
-1.583631247499999972e+02,-3.121079544999999911e+01,-7.287249768301526274e+02
-1.586892966249999972e+02,-3.055845169999999911e+01,-7.373499761717556567e+02
-1.583631247499999972e+02,-3.088462357499999911e+01,-7.365999762290075523e+02
-1.586892966249999972e+02,-3.055845169999999911e+01,-7.365999762290075523e+02
-1.583631247499999972e+02,-3.055845169999999911e+01,-7.362249762576335570e+02
-1.583631247499999972e+02,-3.088462357499999911e+01,-7.290999768015267364e+02
-1.583631247499999972e+02,-3.055845169999999911e+01,-7.294749767729007317e+02
-1.586892966249999972e+02,-2.990610794999999911e+01,-7.365999762290075523e+02
-1.583631247499999972e+02,-3.023227982499999911e+01,-7.358499762862595617e+02
-1.586892966249999972e+02,-2.990610794999999911e+01,-7.358499762862595617e+02
-1.583631247499999972e+02,-2.990610794999999911e+01,-7.354749763148854527e+02
-1.583631247499999972e+02,-3.023227982499999911e+01,-7.343499764007633530e+02
-1.583631247499999972e+02,-2.990610794999999911e+01,-7.347249763721373483e+02
-1.583631247499999972e+02,-2.990610794999999911e+01,-7.339749764293892440e+02
-1.586892966249999972e+02,-2.990610794999999911e+01,-7.328499765152671444e+02
-1.583631247499999972e+02,-3.023227982499999911e+01,-7.328499765152671444e+02
-1.583631247499999972e+02,-2.990610794999999911e+01,-7.332249764866411397e+02
-1.583631247499999972e+02,-2.990610794999999911e+01,-7.324749765438931490e+02
-1.586892966249999972e+02,-2.990610794999999911e+01,-7.305999766870228314e+02
-1.583631247499999972e+02,-3.023227982499999911e+01,-7.305999766870228314e+02
-1.583631247499999972e+02,-2.990610794999999911e+01,-7.309749766583969404e+02
-1.583631247499999972e+02,-3.023227982499999911e+01,-7.298499767442747270e+02
-1.586892966249999972e+02,-2.925376419999999911e+01,-7.365999762290075523e+02
-1.586892966249999972e+02,-2.925376419999999911e+01,-7.358499762862595617e+02
-1.583631247499999972e+02,-2.925376419999999911e+01,-7.354749763148854527e+02
-1.583631247499999972e+02,-2.925376419999999911e+01,-7.347249763721373483e+02
-1.583631247499999972e+02,-2.957993607499999911e+01,-7.335999764580152487e+02
-1.586892966249999972e+02,-2.925376419999999911e+01,-7.335999764580152487e+02
-1.586892966249999972e+02,-2.925376419999999911e+01,-7.328499765152671444e+02
-1.583631247499999972e+02,-2.957993607499999911e+01,-7.320999765725190400e+02
-1.583631247499999972e+02,-2.957993607499999911e+01,-7.313499766297709357e+02
-1.586892966249999972e+02,-2.860142044999999911e+01,-7.365999762290075523e+02
-1.583631247499999972e+02,-2.892759232499999911e+01,-7.350999763435114573e+02
-1.586892966249999972e+02,-2.794907669999999911e+01,-7.365999762290075523e+02
-1.580369528749999972e+02,-3.838657669999999911e+01,-7.343499764007633530e+02
-1.580369528749999972e+02,-3.838657669999999911e+01,-7.335999764580152487e+02
-1.577107809999999972e+02,-3.838657669999999911e+01,-7.332249764866411397e+02
-1.577107809999999972e+02,-3.871274857499999911e+01,-7.328499765152671444e+02
-1.577107809999999972e+02,-3.838657669999999911e+01,-7.324749765438931490e+02
-1.580369528749999972e+02,-3.838657669999999911e+01,-7.313499766297709357e+02
-1.580369528749999972e+02,-3.838657669999999911e+01,-7.298499767442747270e+02
-1.577107809999999972e+02,-3.773423294999999911e+01,-7.347249763721373483e+02
-1.577107809999999972e+02,-3.806040482499999911e+01,-7.343499764007633530e+02
-1.577107809999999972e+02,-3.806040482499999911e+01,-7.335999764580152487e+02
-1.577107809999999972e+02,-3.806040482499999911e+01,-7.320999765725190400e+02
-1.577107809999999972e+02,-3.806040482499999911e+01,-7.313499766297709357e+02
-1.580369528749999972e+02,-3.773423294999999911e+01,-7.305999766870228314e+02
-1.577107809999999972e+02,-3.773423294999999911e+01,-7.309749766583969404e+02
-1.577107809999999972e+02,-3.773423294999999911e+01,-7.302249767156488360e+02
-1.577107809999999972e+02,-3.806040482499999911e+01,-7.298499767442747270e+02
-1.580369528749999972e+02,-3.773423294999999911e+01,-7.290999768015267364e+02
-1.577107809999999972e+02,-3.773423294999999911e+01,-7.294749767729007317e+02
-1.577107809999999972e+02,-3.708188919999999911e+01,-7.347249763721373483e+02
-1.577107809999999972e+02,-3.740806107499999911e+01,-7.305999766870228314e+02
-1.577107809999999972e+02,-3.740806107499999911e+01,-7.290999768015267364e+02
-1.580369528749999972e+02,-3.708188919999999911e+01,-7.283499768587786320e+02
-1.577107809999999972e+02,-3.708188919999999911e+01,-7.287249768301526274e+02
-1.580369528749999972e+02,-3.642954544999999911e+01,-7.350999763435114573e+02
-1.577107809999999972e+02,-3.642954544999999911e+01,-7.347249763721373483e+02
-1.580369528749999972e+02,-3.642954544999999911e+01,-7.283499768587786320e+02
-1.577107809999999972e+02,-3.642954544999999911e+01,-7.287249768301526274e+02
-1.580369528749999972e+02,-3.642954544999999911e+01,-7.275999769160305277e+02
-1.577107809999999972e+02,-3.577720169999999911e+01,-7.354749763148854527e+02
-1.577107809999999972e+02,-3.610337357499999911e+01,-7.350999763435114573e+02
-1.577107809999999972e+02,-3.610337357499999911e+01,-7.283499768587786320e+02
-1.577107809999999972e+02,-3.577720169999999911e+01,-7.279749768874045230e+02
-1.580369528749999972e+02,-3.577720169999999911e+01,-7.275999769160305277e+02
-1.577107809999999972e+02,-3.512485794999999911e+01,-7.392249760286259743e+02
-1.577107809999999972e+02,-3.545102982499999911e+01,-7.388499760572518653e+02
-1.577107809999999972e+02,-3.545102982499999911e+01,-7.380999761145037610e+02
-1.577107809999999972e+02,-3.512485794999999911e+01,-7.377249761431297657e+02
-1.577107809999999972e+02,-3.512485794999999911e+01,-7.354749763148854527e+02
-1.577107809999999972e+02,-3.545102982499999911e+01,-7.275999769160305277e+02
-1.580369528749999972e+02,-3.512485794999999911e+01,-7.268499769732824234e+02
-1.577107809999999972e+02,-3.512485794999999911e+01,-7.272249769446564187e+02
-1.577107809999999972e+02,-3.447251419999999911e+01,-7.392249760286259743e+02
-1.577107809999999972e+02,-3.479868607499999911e+01,-7.373499761717556567e+02
-1.577107809999999972e+02,-3.479868607499999911e+01,-7.365999762290075523e+02
-1.580369528749999972e+02,-3.447251419999999911e+01,-7.365999762290075523e+02
-1.577107809999999972e+02,-3.447251419999999911e+01,-7.362249762576335570e+02
-1.577107809999999972e+02,-3.447251419999999911e+01,-7.354749763148854527e+02
-1.577107809999999972e+02,-3.447251419999999911e+01,-7.272249769446564187e+02
-1.577107809999999972e+02,-3.414634232499999911e+01,-7.388499760572518653e+02
-1.580369528749999972e+02,-3.382017044999999911e+01,-7.388499760572518653e+02
-1.577107809999999972e+02,-3.382017044999999911e+01,-7.384749760858778700e+02
-1.577107809999999972e+02,-3.382017044999999911e+01,-7.362249762576335570e+02
-1.580369528749999972e+02,-3.382017044999999911e+01,-7.358499762862595617e+02
-1.577107809999999972e+02,-3.382017044999999911e+01,-7.354749763148854527e+02
-1.580369528749999972e+02,-3.382017044999999911e+01,-7.275999769160305277e+02
-1.577107809999999972e+02,-3.414634232499999911e+01,-7.275999769160305277e+02
-1.577107809999999972e+02,-3.382017044999999911e+01,-7.279749768874045230e+02
-1.580369528749999972e+02,-3.316782669999999911e+01,-7.380999761145037610e+02
-1.577107809999999972e+02,-3.349399857499999911e+01,-7.380999761145037610e+02
-1.580369528749999972e+02,-3.316782669999999911e+01,-7.373499761717556567e+02
-1.577107809999999972e+02,-3.349399857499999911e+01,-7.373499761717556567e+02
-1.577107809999999972e+02,-3.316782669999999911e+01,-7.369749762003816613e+02
-1.577107809999999972e+02,-3.349399857499999911e+01,-7.358499762862595617e+02
-1.577107809999999972e+02,-3.316782669999999911e+01,-7.279749768874045230e+02
-1.577107809999999972e+02,-3.251548294999999911e+01,-7.369749762003816613e+02
-1.577107809999999972e+02,-3.251548294999999911e+01,-7.279749768874045230e+02
-1.577107809999999972e+02,-3.218931107499999911e+01,-7.365999762290075523e+02
-1.580369528749999972e+02,-3.186313919999999911e+01,-7.365999762290075523e+02
-1.577107809999999972e+02,-3.186313919999999911e+01,-7.362249762576335570e+02
-1.577107809999999972e+02,-3.186313919999999911e+01,-7.279749768874045230e+02
-1.580369528749999972e+02,-3.121079544999999911e+01,-7.365999762290075523e+02
-1.577107809999999972e+02,-3.153696732499999911e+01,-7.358499762862595617e+02
-1.580369528749999972e+02,-3.121079544999999911e+01,-7.358499762862595617e+02
-1.580369528749999972e+02,-3.121079544999999911e+01,-7.350999763435114573e+02
-1.577107809999999972e+02,-3.153696732499999911e+01,-7.350999763435114573e+02
-1.577107809999999972e+02,-3.121079544999999911e+01,-7.347249763721373483e+02
-1.580369528749999972e+02,-3.121079544999999911e+01,-7.290999768015267364e+02
-1.577107809999999972e+02,-3.153696732499999911e+01,-7.290999768015267364e+02
-1.577107809999999972e+02,-3.121079544999999911e+01,-7.294749767729007317e+02
-1.577107809999999972e+02,-3.153696732499999911e+01,-7.283499768587786320e+02
-1.580369528749999972e+02,-3.055845169999999911e+01,-7.358499762862595617e+02
-1.580369528749999972e+02,-3.055845169999999911e+01,-7.350999763435114573e+02
-1.577107809999999972e+02,-3.088462357499999911e+01,-7.343499764007633530e+02
-1.580369528749999972e+02,-3.055845169999999911e+01,-7.343499764007633530e+02
-1.577107809999999972e+02,-3.055845169999999911e+01,-7.339749764293892440e+02
-1.580369528749999972e+02,-3.055845169999999911e+01,-7.328499765152671444e+02
-1.577107809999999972e+02,-3.088462357499999911e+01,-7.328499765152671444e+02
-1.577107809999999972e+02,-3.055845169999999911e+01,-7.332249764866411397e+02
-1.577107809999999972e+02,-3.055845169999999911e+01,-7.324749765438931490e+02
-1.577107809999999972e+02,-3.055845169999999911e+01,-7.294749767729007317e+02
-1.580369528749999972e+02,-2.990610794999999911e+01,-7.350999763435114573e+02
-1.580369528749999972e+02,-2.990610794999999911e+01,-7.335999764580152487e+02
-1.577107809999999972e+02,-3.023227982499999911e+01,-7.335999764580152487e+02
-1.577107809999999972e+02,-2.990610794999999911e+01,-7.324749765438931490e+02
-1.577107809999999972e+02,-3.023227982499999911e+01,-7.305999766870228314e+02
-1.577107809999999972e+02,-2.990610794999999911e+01,-7.309749766583969404e+02
-1.577107809999999972e+02,-3.023227982499999911e+01,-7.298499767442747270e+02
-1.580369528749999972e+02,-2.925376419999999911e+01,-7.350999763435114573e+02
-1.577107809999999972e+02,-2.957993607499999911e+01,-7.320999765725190400e+02
-1.577107809999999972e+02,-2.957993607499999911e+01,-7.313499766297709357e+02
-1.573846091249999972e+02,-3.838657669999999911e+01,-7.343499764007633530e+02
-1.570584372499999972e+02,-3.838657669999999911e+01,-7.347249763721373483e+02
-1.570584372499999972e+02,-3.871274857499999911e+01,-7.343499764007633530e+02
-1.570584372499999972e+02,-3.838657669999999911e+01,-7.339749764293892440e+02
-1.573846091249999972e+02,-3.838657669999999911e+01,-7.328499765152671444e+02
-1.570584372499999972e+02,-3.773423294999999911e+01,-7.347249763721373483e+02
-1.570584372499999972e+02,-3.806040482499999911e+01,-7.335999764580152487e+02
-1.570584372499999972e+02,-3.806040482499999911e+01,-7.328499765152671444e+02
-1.573846091249999972e+02,-3.773423294999999911e+01,-7.320999765725190400e+02
-1.570584372499999972e+02,-3.773423294999999911e+01,-7.324749765438931490e+02
-1.570584372499999972e+02,-3.773423294999999911e+01,-7.317249766011450447e+02
-1.570584372499999972e+02,-3.806040482499999911e+01,-7.313499766297709357e+02
-1.570584372499999972e+02,-3.773423294999999911e+01,-7.309749766583969404e+02
-1.573846091249999972e+02,-3.773423294999999911e+01,-7.298499767442747270e+02
-1.570584372499999972e+02,-3.708188919999999911e+01,-7.347249763721373483e+02
-1.570584372499999972e+02,-3.740806107499999911e+01,-7.320999765725190400e+02
-1.570584372499999972e+02,-3.740806107499999911e+01,-7.305999766870228314e+02
-1.573846091249999972e+02,-3.708188919999999911e+01,-7.298499767442747270e+02
-1.570584372499999972e+02,-3.708188919999999911e+01,-7.302249767156488360e+02
-1.573846091249999972e+02,-3.708188919999999911e+01,-7.290999768015267364e+02
-1.570584372499999972e+02,-3.642954544999999911e+01,-7.347249763721373483e+02
-1.570584372499999972e+02,-3.675571732499999911e+01,-7.298499767442747270e+02
-1.570584372499999972e+02,-3.642954544999999911e+01,-7.294749767729007317e+02
-1.573846091249999972e+02,-3.642954544999999911e+01,-7.290999768015267364e+02
-1.573846091249999972e+02,-3.577720169999999911e+01,-7.350999763435114573e+02
-1.570584372499999972e+02,-3.577720169999999911e+01,-7.347249763721373483e+02
-1.570584372499999972e+02,-3.610337357499999911e+01,-7.290999768015267364e+02
-1.573846091249999972e+02,-3.577720169999999911e+01,-7.283499768587786320e+02
-1.570584372499999972e+02,-3.577720169999999911e+01,-7.287249768301526274e+02
-1.573846091249999972e+02,-3.512485794999999911e+01,-7.388499760572518653e+02
-1.573846091249999972e+02,-3.512485794999999911e+01,-7.380999761145037610e+02
-1.570584372499999972e+02,-3.512485794999999911e+01,-7.354749763148854527e+02
-1.570584372499999972e+02,-3.545102982499999911e+01,-7.350999763435114573e+02
-1.573846091249999972e+02,-3.512485794999999911e+01,-7.283499768587786320e+02
-1.570584372499999972e+02,-3.512485794999999911e+01,-7.287249768301526274e+02
-1.573846091249999972e+02,-3.512485794999999911e+01,-7.275999769160305277e+02
-1.573846091249999972e+02,-3.447251419999999911e+01,-7.388499760572518653e+02
-1.573846091249999972e+02,-3.447251419999999911e+01,-7.380999761145037610e+02
-1.573846091249999972e+02,-3.447251419999999911e+01,-7.373499761717556567e+02
-1.573846091249999972e+02,-3.447251419999999911e+01,-7.365999762290075523e+02
-1.570584372499999972e+02,-3.447251419999999911e+01,-7.354749763148854527e+02
-1.570584372499999972e+02,-3.479868607499999911e+01,-7.283499768587786320e+02
-1.570584372499999972e+02,-3.447251419999999911e+01,-7.279749768874045230e+02
-1.573846091249999972e+02,-3.447251419999999911e+01,-7.275999769160305277e+02
-1.573846091249999972e+02,-3.382017044999999911e+01,-7.380999761145037610e+02
-1.573846091249999972e+02,-3.382017044999999911e+01,-7.373499761717556567e+02
-1.570584372499999972e+02,-3.382017044999999911e+01,-7.369749762003816613e+02
-1.570584372499999972e+02,-3.414634232499999911e+01,-7.365999762290075523e+02
-1.570584372499999972e+02,-3.382017044999999911e+01,-7.362249762576335570e+02
-1.570584372499999972e+02,-3.382017044999999911e+01,-7.354749763148854527e+02
-1.570584372499999972e+02,-3.382017044999999911e+01,-7.279749768874045230e+02
-1.570584372499999972e+02,-3.316782669999999911e+01,-7.369749762003816613e+02
-1.573846091249999972e+02,-3.316782669999999911e+01,-7.358499762862595617e+02
-1.570584372499999972e+02,-3.316782669999999911e+01,-7.362249762576335570e+02
-1.570584372499999972e+02,-3.349399857499999911e+01,-7.350999763435114573e+02
-1.573846091249999972e+02,-3.316782669999999911e+01,-7.350999763435114573e+02
-1.570584372499999972e+02,-3.316782669999999911e+01,-7.347249763721373483e+02
-1.570584372499999972e+02,-3.316782669999999911e+01,-7.279749768874045230e+02
-1.570584372499999972e+02,-3.284165482499999911e+01,-7.365999762290075523e+02
-1.573846091249999972e+02,-3.251548294999999911e+01,-7.365999762290075523e+02
-1.573846091249999972e+02,-3.251548294999999911e+01,-7.358499762862595617e+02
-1.573846091249999972e+02,-3.251548294999999911e+01,-7.350999763435114573e+02
-1.570584372499999972e+02,-3.251548294999999911e+01,-7.347249763721373483e+02
-1.570584372499999972e+02,-3.251548294999999911e+01,-7.279749768874045230e+02
-1.573846091249999972e+02,-3.186313919999999911e+01,-7.358499762862595617e+02
-1.573846091249999972e+02,-3.186313919999999911e+01,-7.350999763435114573e+02
-1.570584372499999972e+02,-3.186313919999999911e+01,-7.347249763721373483e+02
-1.573846091249999972e+02,-3.186313919999999911e+01,-7.283499768587786320e+02
-1.570584372499999972e+02,-3.218931107499999911e+01,-7.283499768587786320e+02
-1.570584372499999972e+02,-3.186313919999999911e+01,-7.287249768301526274e+02
-1.573846091249999972e+02,-3.121079544999999911e+01,-7.343499764007633530e+02
-1.570584372499999972e+02,-3.153696732499999911e+01,-7.343499764007633530e+02
-1.570584372499999972e+02,-3.121079544999999911e+01,-7.339749764293892440e+02
-1.570584372499999972e+02,-3.153696732499999911e+01,-7.290999768015267364e+02
-1.570584372499999972e+02,-3.121079544999999911e+01,-7.294749767729007317e+02
-1.573846091249999972e+02,-3.055845169999999911e+01,-7.335999764580152487e+02
-1.570584372499999972e+02,-3.088462357499999911e+01,-7.335999764580152487e+02
-1.570584372499999972e+02,-3.088462357499999911e+01,-7.328499765152671444e+02
-1.570584372499999972e+02,-3.055845169999999911e+01,-7.324749765438931490e+02
-1.573846091249999972e+02,-3.055845169999999911e+01,-7.305999766870228314e+02
-1.570584372499999972e+02,-3.088462357499999911e+01,-7.305999766870228314e+02
-1.570584372499999972e+02,-3.055845169999999911e+01,-7.309749766583969404e+02
-1.573846091249999972e+02,-3.055845169999999911e+01,-7.298499767442747270e+02
-1.570584372499999972e+02,-3.088462357499999911e+01,-7.298499767442747270e+02
-1.570584372499999972e+02,-2.990610794999999911e+01,-7.324749765438931490e+02
-1.570584372499999972e+02,-2.990610794999999911e+01,-7.309749766583969404e+02
-1.570584372499999972e+02,-2.957993607499999911e+01,-7.320999765725190400e+02
-1.570584372499999972e+02,-2.957993607499999911e+01,-7.313499766297709357e+02
-1.567322653749999972e+02,-3.838657669999999911e+01,-7.343499764007633530e+02
-1.564060934999999972e+02,-3.773423294999999911e+01,-7.347249763721373483e+02
-1.564060934999999972e+02,-3.806040482499999911e+01,-7.343499764007633530e+02
-1.567322653749999972e+02,-3.773423294999999911e+01,-7.335999764580152487e+02
