-1.749765625000000000e+02,1.667968750000000000e+01,-7.465999765270270245e+02
-1.753105468750000000e+02,1.667968750000000000e+01,-7.450999766486486351e+02
-1.749765625000000000e+02,1.634570312500000000e+01,-7.430999768108107446e+02
-1.753105468750000000e+02,1.667968750000000000e+01,-7.370999772972973005e+02
-1.749765625000000000e+02,1.667968750000000000e+01,-7.365999773378377995e+02
-1.753105468750000000e+02,1.734765625000000000e+01,-7.460999765675675235e+02
-1.749765625000000000e+02,1.734765625000000000e+01,-7.465999765270270245e+02
-1.753105468750000000e+02,1.734765625000000000e+01,-7.450999766486486351e+02
-1.753105468750000000e+02,1.734765625000000000e+01,-7.370999772972973005e+02
-1.749765625000000000e+02,1.734765625000000000e+01,-7.365999773378377995e+02
-1.753105468750000000e+02,1.801562500000000000e+01,-7.460999765675675235e+02
-1.749765625000000000e+02,1.801562500000000000e+01,-7.465999765270270245e+02
-1.749765625000000000e+02,1.801562500000000000e+01,-7.365999773378377995e+02
-1.753105468750000000e+02,1.801562500000000000e+01,-7.340999775405405217e+02
-1.749765625000000000e+02,1.801562500000000000e+01,-7.335999775810810206e+02
-1.749765625000000000e+02,1.768164062500000000e+01,-7.330999776216216333e+02
-1.749765625000000000e+02,1.768164062500000000e+01,-7.320999777027026312e+02
-1.749765625000000000e+02,1.801562500000000000e+01,-7.315999777432432438e+02
-1.749765625000000000e+02,1.868359375000000000e+01,-7.465999765270270245e+02
-1.749765625000000000e+02,1.834960937500000000e+01,-7.360999773783782985e+02
-1.749765625000000000e+02,1.834960937500000000e+01,-7.350999774594594101e+02
-1.749765625000000000e+02,1.834960937500000000e+01,-7.340999775405405217e+02
-1.753105468750000000e+02,1.868359375000000000e+01,-7.310999777837837428e+02
-1.749765625000000000e+02,1.868359375000000000e+01,-7.315999777432432438e+02
-1.749765625000000000e+02,1.935156250000000000e+01,-7.465999765270270245e+02
-1.749765625000000000e+02,1.901757812500000000e+01,-7.310999777837837428e+02
-1.749765625000000000e+02,1.901757812500000000e+01,-7.300999778648648544e+02
-1.753105468750000000e+02,1.935156250000000000e+01,-7.300999778648648544e+02
-1.749765625000000000e+02,2.001953125000000000e+01,-7.465999765270270245e+02
-1.749765625000000000e+02,2.068750000000000000e+01,-7.465999765270270245e+02
-1.749765625000000000e+02,2.135546875000000000e+01,-7.465999765270270245e+02
-1.753105468750000000e+02,2.135546875000000000e+01,-7.330999776216216333e+02
-1.749765625000000000e+02,2.102148437500000000e+01,-7.330999776216216333e+02
-1.749765625000000000e+02,2.135546875000000000e+01,-7.335999775810810206e+02
-1.753105468750000000e+02,2.135546875000000000e+01,-7.320999777027026312e+02
-1.749765625000000000e+02,2.102148437500000000e+01,-7.320999777027026312e+02
-1.749765625000000000e+02,2.102148437500000000e+01,-7.310999777837837428e+02
-1.749765625000000000e+02,2.102148437500000000e+01,-7.300999778648648544e+02
-1.749765625000000000e+02,2.202343750000000000e+01,-7.465999765270270245e+02
-1.749765625000000000e+02,2.202343750000000000e+01,-7.335999775810810206e+02
-1.749765625000000000e+02,2.269140625000000000e+01,-7.465999765270270245e+02
-1.749765625000000000e+02,2.235742187500000000e+01,-7.360999773783782985e+02
-1.749765625000000000e+02,2.269140625000000000e+01,-7.365999773378377995e+02
-1.749765625000000000e+02,2.269140625000000000e+01,-7.355999774189189111e+02
-1.753105468750000000e+02,2.269140625000000000e+01,-7.340999775405405217e+02
-1.749765625000000000e+02,2.269140625000000000e+01,-7.335999775810810206e+02
-1.749765625000000000e+02,2.335937500000000000e+01,-7.465999765270270245e+02
-1.749765625000000000e+02,2.335937500000000000e+01,-7.365999773378377995e+02
-1.753105468750000000e+02,2.335937500000000000e+01,-7.350999774594594101e+02
-1.749765625000000000e+02,2.335937500000000000e+01,-7.355999774189189111e+02
-1.749765625000000000e+02,2.335937500000000000e+01,-7.345999775000000227e+02
-1.749765625000000000e+02,2.302539062500000000e+01,-7.340999775405405217e+02
-1.749765625000000000e+02,2.402734375000000000e+01,-7.465999765270270245e+02
-1.749765625000000000e+02,2.402734375000000000e+01,-7.365999773378377995e+02
-1.749765625000000000e+02,2.369335937500000000e+01,-7.350999774594594101e+02
-1.749765625000000000e+02,2.469531250000000000e+01,-7.465999765270270245e+02
-1.749765625000000000e+02,2.469531250000000000e+01,-7.365999773378377995e+02
-1.749765625000000000e+02,2.536328125000000000e+01,-7.465999765270270245e+02
-1.749765625000000000e+02,2.502929687500000000e+01,-7.360999773783782985e+02
-1.753105468750000000e+02,2.536328125000000000e+01,-7.360999773783782985e+02
-1.749765625000000000e+02,2.502929687500000000e+01,-7.350999774594594101e+02
-1.753105468750000000e+02,2.536328125000000000e+01,-7.350999774594594101e+02
-1.749765625000000000e+02,2.536328125000000000e+01,-7.345999775000000227e+02
-1.749765625000000000e+02,2.603125000000000000e+01,-7.465999765270270245e+02
-1.749765625000000000e+02,2.603125000000000000e+01,-7.345999775000000227e+02
-1.749765625000000000e+02,2.669921875000000000e+01,-7.465999765270270245e+02
-1.749765625000000000e+02,2.669921875000000000e+01,-7.345999775000000227e+02
-1.749765625000000000e+02,2.736718750000000000e+01,-7.465999765270270245e+02
-1.753105468750000000e+02,2.736718750000000000e+01,-7.350999774594594101e+02
-1.749765625000000000e+02,2.736718750000000000e+01,-7.345999775000000227e+02
-1.749765625000000000e+02,2.803515625000000000e+01,-7.465999765270270245e+02
-1.749765625000000000e+02,2.770117187500000000e+01,-7.350999774594594101e+02
-1.749765625000000000e+02,2.803515625000000000e+01,-7.355999774189189111e+02
-1.749765625000000000e+02,2.870312500000000000e+01,-7.465999765270270245e+02
-1.749765625000000000e+02,2.870312500000000000e+01,-7.355999774189189111e+02
-1.749765625000000000e+02,2.937109375000000000e+01,-7.465999765270270245e+02
-1.753105468750000000e+02,2.937109375000000000e+01,-7.360999773783782985e+02
-1.749765625000000000e+02,2.937109375000000000e+01,-7.355999774189189111e+02
-1.749765625000000000e+02,3.003906250000000000e+01,-7.465999765270270245e+02
-1.749765625000000000e+02,2.970507812500000000e+01,-7.360999773783782985e+02
-1.749765625000000000e+02,3.003906250000000000e+01,-7.365999773378377995e+02
-1.753105468750000000e+02,3.070703125000000000e+01,-7.470999764864864119e+02
-1.749765625000000000e+02,3.070703125000000000e+01,-7.475999764459459129e+02
-1.749765625000000000e+02,3.037304687500000000e+01,-7.470999764864864119e+02
-1.749765625000000000e+02,3.070703125000000000e+01,-7.365999773378377995e+02
-1.749765625000000000e+02,3.104101562500000000e+01,-7.470999764864864119e+02
-1.753105468750000000e+02,3.137500000000000000e+01,-7.460999765675675235e+02
-1.749765625000000000e+02,3.137500000000000000e+01,-7.465999765270270245e+02
-1.749765625000000000e+02,3.137500000000000000e+01,-7.365999773378377995e+02
-1.749765625000000000e+02,3.170898437500000000e+01,-7.460999765675675235e+02
-1.753105468750000000e+02,3.204296875000000000e+01,-7.450999766486486351e+02
-1.749765625000000000e+02,3.204296875000000000e+01,-7.455999766081080224e+02
-1.749765625000000000e+02,3.204296875000000000e+01,-7.365999773378377995e+02
-1.753105468750000000e+02,3.271093750000000000e+01,-7.450999766486486351e+02
-1.749765625000000000e+02,3.271093750000000000e+01,-7.455999766081080224e+02
-1.753105468750000000e+02,3.271093750000000000e+01,-7.440999767297297467e+02
-1.753105468750000000e+02,3.271093750000000000e+01,-7.370999772972973005e+02
-1.749765625000000000e+02,3.271093750000000000e+01,-7.365999773378377995e+02
-1.753105468750000000e+02,3.337890625000000000e+01,-7.470999764864864119e+02
-1.749765625000000000e+02,3.337890625000000000e+01,-7.475999764459459129e+02
-1.749765625000000000e+02,3.304492187500000000e+01,-7.470999764864864119e+02
-1.749765625000000000e+02,3.304492187500000000e+01,-7.460999765675675235e+02
-1.753105468750000000e+02,3.337890625000000000e+01,-7.460999765675675235e+02
-1.753105468750000000e+02,3.337890625000000000e+01,-7.450999766486486351e+02
-1.753105468750000000e+02,3.337890625000000000e+01,-7.440999767297297467e+02
-1.753105468750000000e+02,3.337890625000000000e+01,-7.370999772972973005e+02
-1.749765625000000000e+02,3.337890625000000000e+01,-7.365999773378377995e+02
-1.753105468750000000e+02,3.404687500000000000e+01,-7.470999764864864119e+02
-1.749765625000000000e+02,3.404687500000000000e+01,-7.475999764459459129e+02
-1.753105468750000000e+02,3.404687500000000000e+01,-7.460999765675675235e+02
-1.753105468750000000e+02,3.404687500000000000e+01,-7.440999767297297467e+02
-1.753105468750000000e+02,3.404687500000000000e+01,-7.380999772162161889e+02
-1.749765625000000000e+02,3.404687500000000000e+01,-7.365999773378377995e+02
-1.749765625000000000e+02,3.438085937500000000e+01,-7.470999764864864119e+02
-1.749765625000000000e+02,3.438085937500000000e+01,-7.460999765675675235e+02
-1.749765625000000000e+02,3.471484375000000000e+01,-7.455999766081080224e+02
-1.753105468750000000e+02,3.471484375000000000e+01,-7.440999767297297467e+02
-1.749765625000000000e+02,3.438085937500000000e+01,-7.400999770540540794e+02
-1.749765625000000000e+02,3.471484375000000000e+01,-7.405999770135134668e+02
-1.749765625000000000e+02,3.471484375000000000e+01,-7.395999770945945784e+02
-1.749765625000000000e+02,3.471484375000000000e+01,-7.365999773378377995e+02
-1.753105468750000000e+02,3.538281250000000000e+01,-7.450999766486486351e+02
-1.749765625000000000e+02,3.538281250000000000e+01,-7.455999766081080224e+02
-1.753105468750000000e+02,3.538281250000000000e+01,-7.440999767297297467e+02
-1.753105468750000000e+02,3.538281250000000000e+01,-7.430999768108107446e+02
-1.749765625000000000e+02,3.538281250000000000e+01,-7.405999770135134668e+02
-1.749765625000000000e+02,3.538281250000000000e+01,-7.395999770945945784e+02
-1.749765625000000000e+02,3.538281250000000000e+01,-7.365999773378377995e+02
-1.753105468750000000e+02,3.605078125000000000e+01,-7.460999765675675235e+02
-1.749765625000000000e+02,3.605078125000000000e+01,-7.465999765270270245e+02
-1.749765625000000000e+02,3.571679687500000000e+01,-7.460999765675675235e+02
-1.753105468750000000e+02,3.605078125000000000e+01,-7.450999766486486351e+02
-1.753105468750000000e+02,3.605078125000000000e+01,-7.440999767297297467e+02
-1.753105468750000000e+02,3.605078125000000000e+01,-7.430999768108107446e+02
-1.749765625000000000e+02,3.605078125000000000e+01,-7.405999770135134668e+02
-1.749765625000000000e+02,3.605078125000000000e+01,-7.395999770945945784e+02
-1.753105468750000000e+02,3.605078125000000000e+01,-7.380999772162161889e+02
-1.753105468750000000e+02,3.605078125000000000e+01,-7.370999772972973005e+02
-1.749765625000000000e+02,3.571679687500000000e+01,-7.360999773783782985e+02
-1.753105468750000000e+02,3.605078125000000000e+01,-7.360999773783782985e+02
-1.749765625000000000e+02,3.605078125000000000e+01,-7.355999774189189111e+02
-1.753105468750000000e+02,3.671875000000000000e+01,-7.460999765675675235e+02
-1.749765625000000000e+02,3.671875000000000000e+01,-7.465999765270270245e+02
-1.753105468750000000e+02,3.671875000000000000e+01,-7.450999766486486351e+02
-1.753105468750000000e+02,3.671875000000000000e+01,-7.420999768918918562e+02
-1.749765625000000000e+02,3.671875000000000000e+01,-7.415999769324323552e+02
-1.749765625000000000e+02,3.638476562500000000e+01,-7.410999769729729678e+02
-1.753105468750000000e+02,3.671875000000000000e+01,-7.390999771351350773e+02
-1.749765625000000000e+02,3.671875000000000000e+01,-7.395999770945945784e+02
-1.753105468750000000e+02,3.671875000000000000e+01,-7.380999772162161889e+02
-1.753105468750000000e+02,3.671875000000000000e+01,-7.360999773783782985e+02
-1.749765625000000000e+02,3.638476562500000000e+01,-7.350999774594594101e+02
-1.753105468750000000e+02,3.671875000000000000e+01,-7.350999774594594101e+02
-1.749765625000000000e+02,3.671875000000000000e+01,-7.345999775000000227e+02
-1.753105468750000000e+02,3.738671875000000000e+01,-7.460999765675675235e+02
-1.749765625000000000e+02,3.738671875000000000e+01,-7.465999765270270245e+02
-1.753105468750000000e+02,3.738671875000000000e+01,-7.430999768108107446e+02
-1.749765625000000000e+02,3.738671875000000000e+01,-7.425999768513513573e+02
-1.749765625000000000e+02,3.705273437500000000e+01,-7.420999768918918562e+02
-1.749765625000000000e+02,3.705273437500000000e+01,-7.390999771351350773e+02
-1.749765625000000000e+02,3.705273437500000000e+01,-7.380999772162161889e+02
-1.749765625000000000e+02,3.738671875000000000e+01,-7.375999772567566879e+02
-1.753105468750000000e+02,3.738671875000000000e+01,-7.360999773783782985e+02
-1.749765625000000000e+02,3.705273437500000000e+01,-7.340999775405405217e+02
-1.753105468750000000e+02,3.738671875000000000e+01,-7.340999775405405217e+02
-1.749765625000000000e+02,3.738671875000000000e+01,-7.335999775810810206e+02
-1.753105468750000000e+02,3.805468750000000000e+01,-7.460999765675675235e+02
-1.749765625000000000e+02,3.805468750000000000e+01,-7.465999765270270245e+02
-1.749765625000000000e+02,3.772070312500000000e+01,-7.430999768108107446e+02
-1.749765625000000000e+02,3.805468750000000000e+01,-7.435999767702702457e+02
-1.753105468750000000e+02,3.805468750000000000e+01,-7.380999772162161889e+02
-1.749765625000000000e+02,3.805468750000000000e+01,-7.385999771756756900e+02
-1.749765625000000000e+02,3.772070312500000000e+01,-7.380999772162161889e+02
-1.753105468750000000e+02,3.805468750000000000e+01,-7.360999773783782985e+02
-1.749765625000000000e+02,3.805468750000000000e+01,-7.335999775810810206e+02
-1.753105468750000000e+02,3.805468750000000000e+01,-7.330999776216216333e+02
-1.749765625000000000e+02,3.838867187500000000e+01,-7.460999765675675235e+02
-1.753105468750000000e+02,3.872265625000000000e+01,-7.450999766486486351e+02
-1.749765625000000000e+02,3.872265625000000000e+01,-7.455999766081080224e+02
-1.749765625000000000e+02,3.838867187500000000e+01,-7.430999768108107446e+02
-1.753105468750000000e+02,3.872265625000000000e+01,-7.430999768108107446e+02
-1.749765625000000000e+02,3.872265625000000000e+01,-7.425999768513513573e+02
-1.753105468750000000e+02,3.872265625000000000e+01,-7.380999772162161889e+02
-1.749765625000000000e+02,3.872265625000000000e+01,-7.385999771756756900e+02
-1.753105468750000000e+02,3.872265625000000000e+01,-7.370999772972973005e+02
-1.749765625000000000e+02,3.872265625000000000e+01,-7.365999773378377995e+02
-1.749765625000000000e+02,3.838867187500000000e+01,-7.360999773783782985e+02
-1.749765625000000000e+02,3.838867187500000000e+01,-7.350999774594594101e+02
-1.749765625000000000e+02,3.838867187500000000e+01,-7.340999775405405217e+02
-1.753105468750000000e+02,3.939062500000000000e+01,-7.450999766486486351e+02
-1.749765625000000000e+02,3.939062500000000000e+01,-7.455999766081080224e+02
-1.753105468750000000e+02,3.939062500000000000e+01,-7.430999768108107446e+02
-1.749765625000000000e+02,3.905664062500000000e+01,-7.420999768918918562e+02
-1.753105468750000000e+02,3.939062500000000000e+01,-7.420999768918918562e+02
-1.749765625000000000e+02,3.905664062500000000e+01,-7.410999769729729678e+02
-1.753105468750000000e+02,3.939062500000000000e+01,-7.410999769729729678e+02
-1.749765625000000000e+02,3.939062500000000000e+01,-7.405999770135134668e+02
-1.753105468750000000e+02,3.939062500000000000e+01,-7.380999772162161889e+02
-1.749765625000000000e+02,3.939062500000000000e+01,-7.385999771756756900e+02
-1.753105468750000000e+02,3.939062500000000000e+01,-7.370999772972973005e+02
-1.749765625000000000e+02,3.939062500000000000e+01,-7.365999773378377995e+02
-1.749765625000000000e+02,3.972460937500000000e+01,-7.450999766486486351e+02
-1.753105468750000000e+02,4.005859375000000000e+01,-7.440999767297297467e+02
-1.749765625000000000e+02,4.005859375000000000e+01,-7.445999766891891340e+02
-1.749765625000000000e+02,3.972460937500000000e+01,-7.430999768108107446e+02
-1.749765625000000000e+02,4.005859375000000000e+01,-7.435999767702702457e+02
-1.753105468750000000e+02,4.005859375000000000e+01,-7.430999768108107446e+02
-1.753105468750000000e+02,3.972460937500000000e+01,-7.425999768513513573e+02
-1.749765625000000000e+02,4.005859375000000000e+01,-7.425999768513513573e+02
-1.749765625000000000e+02,4.005859375000000000e+01,-7.405999770135134668e+02
-1.749765625000000000e+02,3.972460937500000000e+01,-7.380999772162161889e+02
-1.753105468750000000e+02,4.005859375000000000e+01,-7.370999772972973005e+02
-1.749765625000000000e+02,4.005859375000000000e+01,-7.375999772567566879e+02
-1.749765625000000000e+02,4.005859375000000000e+01,-7.365999773378377995e+02
-1.749765625000000000e+02,4.039257812500000000e+01,-7.440999767297297467e+02
-1.749765625000000000e+02,4.072656250000000000e+01,-7.425999768513513573e+02
-1.749765625000000000e+02,4.072656250000000000e+01,-7.405999770135134668e+02
-1.749765625000000000e+02,4.072656250000000000e+01,-7.375999772567566879e+02
-1.749765625000000000e+02,4.072656250000000000e+01,-7.365999773378377995e+02
-1.749765625000000000e+02,4.106054687500000000e+01,-7.420999768918918562e+02
-1.749765625000000000e+02,4.139453125000000000e+01,-7.415999769324323552e+02
-1.749765625000000000e+02,4.139453125000000000e+01,-7.405999770135134668e+02
-1.753105468750000000e+02,4.139453125000000000e+01,-7.370999772972973005e+02
-1.749765625000000000e+02,4.139453125000000000e+01,-7.375999772567566879e+02
-1.749765625000000000e+02,4.139453125000000000e+01,-7.365999773378377995e+02
-1.749765625000000000e+02,4.172851562500000000e+01,-7.410999769729729678e+02
-1.749765625000000000e+02,4.172851562500000000e+01,-7.370999772972973005e+02
-1.743085937500000000e+02,1.200390625000000000e+01,-7.395999770945945784e+02
-1.743085937500000000e+02,1.166992187500000000e+01,-7.390999771351350773e+02
-1.743085937500000000e+02,1.166992187500000000e+01,-7.380999772162161889e+02
-1.743085937500000000e+02,1.166992187500000000e+01,-7.370999772972973005e+02
-1.743085937500000000e+02,1.200390625000000000e+01,-7.365999773378377995e+02
-1.743085937500000000e+02,1.267187500000000000e+01,-7.405999770135134668e+02
-1.743085937500000000e+02,1.233789062500000000e+01,-7.400999770540540794e+02
-1.743085937500000000e+02,1.233789062500000000e+01,-7.360999773783782985e+02
-1.743085937500000000e+02,1.267187500000000000e+01,-7.355999774189189111e+02
-1.743085937500000000e+02,1.333984375000000000e+01,-7.405999770135134668e+02
-1.743085937500000000e+02,1.333984375000000000e+01,-7.355999774189189111e+02
-1.743085937500000000e+02,1.400781250000000000e+01,-7.415999769324323552e+02
-1.743085937500000000e+02,1.367382812500000000e+01,-7.410999769729729678e+02
-1.746425781250000000e+02,1.400781250000000000e+01,-7.370999772972973005e+02
-1.743085937500000000e+02,1.400781250000000000e+01,-7.355999774189189111e+02
-1.746425781250000000e+02,1.467578125000000000e+01,-7.420999768918918562e+02
-1.743085937500000000e+02,1.467578125000000000e+01,-7.425999768513513573e+02
-1.743085937500000000e+02,1.434179687500000000e+01,-7.420999768918918562e+02
-1.743085937500000000e+02,1.434179687500000000e+01,-7.370999772972973005e+02
-1.743085937500000000e+02,1.467578125000000000e+01,-7.375999772567566879e+02
-1.743085937500000000e+02,1.467578125000000000e+01,-7.365999773378377995e+02
-1.743085937500000000e+02,1.467578125000000000e+01,-7.355999774189189111e+02
-1.743085937500000000e+02,1.534375000000000000e+01,-7.465999765270270245e+02
-1.743085937500000000e+02,1.500976562500000000e+01,-7.460999765675675235e+02
-1.743085937500000000e+02,1.500976562500000000e+01,-7.450999766486486351e+02
-1.743085937500000000e+02,1.534375000000000000e+01,-7.445999766891891340e+02
-1.743085937500000000e+02,1.534375000000000000e+01,-7.425999768513513573e+02
-1.743085937500000000e+02,1.500976562500000000e+01,-7.370999772972973005e+02
-1.746425781250000000e+02,1.534375000000000000e+01,-7.370999772972973005e+02
-1.743085937500000000e+02,1.534375000000000000e+01,-7.355999774189189111e+02
-1.743085937500000000e+02,1.601171875000000000e+01,-7.465999765270270245e+02
-1.743085937500000000e+02,1.567773437500000000e+01,-7.440999767297297467e+02
-1.743085937500000000e+02,1.567773437500000000e+01,-7.430999768108107446e+02
-1.746425781250000000e+02,1.601171875000000000e+01,-7.430999768108107446e+02
-1.746425781250000000e+02,1.601171875000000000e+01,-7.360999773783782985e+02
-1.743085937500000000e+02,1.601171875000000000e+01,-7.355999774189189111e+02
-1.743085937500000000e+02,1.667968750000000000e+01,-7.465999765270270245e+02
-1.743085937500000000e+02,1.634570312500000000e+01,-7.360999773783782985e+02
-1.743085937500000000e+02,1.667968750000000000e+01,-7.365999773378377995e+02
-1.743085937500000000e+02,1.734765625000000000e+01,-7.465999765270270245e+02
-1.743085937500000000e+02,1.734765625000000000e+01,-7.365999773378377995e+02
-1.743085937500000000e+02,1.801562500000000000e+01,-7.465999765270270245e+02
-1.743085937500000000e+02,1.768164062500000000e+01,-7.360999773783782985e+02
-1.746425781250000000e+02,1.801562500000000000e+01,-7.360999773783782985e+02
-1.743085937500000000e+02,1.768164062500000000e+01,-7.350999774594594101e+02
-1.746425781250000000e+02,1.801562500000000000e+01,-7.350999774594594101e+02
-1.743085937500000000e+02,1.801562500000000000e+01,-7.345999775000000227e+02
-1.746425781250000000e+02,1.801562500000000000e+01,-7.330999776216216333e+02
-1.746425781250000000e+02,1.801562500000000000e+01,-7.320999777027026312e+02
-1.743085937500000000e+02,1.868359375000000000e+01,-7.465999765270270245e+02
-1.743085937500000000e+02,1.868359375000000000e+01,-7.345999775000000227e+02
-1.746425781250000000e+02,1.868359375000000000e+01,-7.340999775405405217e+02
-1.743085937500000000e+02,1.868359375000000000e+01,-7.335999775810810206e+02
-1.743085937500000000e+02,1.834960937500000000e+01,-7.330999776216216333e+02
-1.743085937500000000e+02,1.834960937500000000e+01,-7.320999777027026312e+02
-1.743085937500000000e+02,1.868359375000000000e+01,-7.315999777432432438e+02
-1.743085937500000000e+02,1.935156250000000000e+01,-7.465999765270270245e+02
-1.743085937500000000e+02,1.901757812500000000e+01,-7.340999775405405217e+02
-1.743085937500000000e+02,1.901757812500000000e+01,-7.310999777837837428e+02
-1.743085937500000000e+02,1.901757812500000000e+01,-7.300999778648648544e+02
-1.743085937500000000e+02,2.001953125000000000e+01,-7.465999765270270245e+02
-1.743085937500000000e+02,2.068750000000000000e+01,-7.465999765270270245e+02
-1.746425781250000000e+02,2.068750000000000000e+01,-7.310999777837837428e+02
-1.743085937500000000e+02,2.035351562500000000e+01,-7.310999777837837428e+02
-1.743085937500000000e+02,2.068750000000000000e+01,-7.315999777432432438e+02
-1.746425781250000000e+02,2.068750000000000000e+01,-7.300999778648648544e+02
-1.743085937500000000e+02,2.035351562500000000e+01,-7.300999778648648544e+02
-1.743085937500000000e+02,2.135546875000000000e+01,-7.465999765270270245e+02
-1.743085937500000000e+02,2.102148437500000000e+01,-7.330999776216216333e+02
-1.743085937500000000e+02,2.135546875000000000e+01,-7.335999775810810206e+02
-1.743085937500000000e+02,2.102148437500000000e+01,-7.320999777027026312e+02
-1.743085937500000000e+02,2.202343750000000000e+01,-7.465999765270270245e+02
-1.743085937500000000e+02,2.202343750000000000e+01,-7.335999775810810206e+02
-1.743085937500000000e+02,2.269140625000000000e+01,-7.465999765270270245e+02
-1.746425781250000000e+02,2.269140625000000000e+01,-7.360999773783782985e+02
-1.743085937500000000e+02,2.269140625000000000e+01,-7.335999775810810206e+02
-1.743085937500000000e+02,2.335937500000000000e+01,-7.465999765270270245e+02
-1.743085937500000000e+02,2.302539062500000000e+01,-7.360999773783782985e+02
-1.743085937500000000e+02,2.335937500000000000e+01,-7.365999773378377995e+02
-1.743085937500000000e+02,2.335937500000000000e+01,-7.355999774189189111e+02
-1.746425781250000000e+02,2.335937500000000000e+01,-7.340999775405405217e+02
-1.743085937500000000e+02,2.335937500000000000e+01,-7.335999775810810206e+02
-1.743085937500000000e+02,2.402734375000000000e+01,-7.465999765270270245e+02
-1.743085937500000000e+02,2.369335937500000000e+01,-7.360999773783782985e+02
-1.746425781250000000e+02,2.402734375000000000e+01,-7.360999773783782985e+02
-1.746425781250000000e+02,2.402734375000000000e+01,-7.350999774594594101e+02
-1.746425781250000000e+02,2.402734375000000000e+01,-7.340999775405405217e+02
-1.743085937500000000e+02,2.402734375000000000e+01,-7.335999775810810206e+02
-1.743085937500000000e+02,2.469531250000000000e+01,-7.465999765270270245e+02
-1.746425781250000000e+02,2.469531250000000000e+01,-7.360999773783782985e+02
-1.746425781250000000e+02,2.469531250000000000e+01,-7.350999774594594101e+02
-1.746425781250000000e+02,2.469531250000000000e+01,-7.340999775405405217e+02
-1.743085937500000000e+02,2.469531250000000000e+01,-7.335999775810810206e+02
-1.743085937500000000e+02,2.536328125000000000e+01,-7.465999765270270245e+02
-1.746425781250000000e+02,2.536328125000000000e+01,-7.340999775405405217e+02
-1.743085937500000000e+02,2.536328125000000000e+01,-7.335999775810810206e+02
-1.743085937500000000e+02,2.603125000000000000e+01,-7.465999765270270245e+02
-1.743085937500000000e+02,2.569726562500000000e+01,-7.340999775405405217e+02
-1.743085937500000000e+02,2.603125000000000000e+01,-7.345999775000000227e+02
-1.743085937500000000e+02,2.669921875000000000e+01,-7.465999765270270245e+02
-1.743085937500000000e+02,2.669921875000000000e+01,-7.345999775000000227e+02
-1.743085937500000000e+02,2.736718750000000000e+01,-7.465999765270270245e+02
-1.743085937500000000e+02,2.736718750000000000e+01,-7.345999775000000227e+02
-1.743085937500000000e+02,2.803515625000000000e+01,-7.465999765270270245e+02
-1.746425781250000000e+02,2.803515625000000000e+01,-7.350999774594594101e+02
-1.743085937500000000e+02,2.803515625000000000e+01,-7.345999775000000227e+02
-1.743085937500000000e+02,2.870312500000000000e+01,-7.465999765270270245e+02
-1.743085937500000000e+02,2.836914062500000000e+01,-7.350999774594594101e+02
-1.743085937500000000e+02,2.870312500000000000e+01,-7.355999774189189111e+02
-1.743085937500000000e+02,2.937109375000000000e+01,-7.465999765270270245e+02
-1.743085937500000000e+02,2.937109375000000000e+01,-7.355999774189189111e+02
-1.746425781250000000e+02,3.003906250000000000e+01,-7.470999764864864119e+02
-1.743085937500000000e+02,3.003906250000000000e+01,-7.475999764459459129e+02
-1.743085937500000000e+02,2.970507812500000000e+01,-7.470999764864864119e+02
-1.746425781250000000e+02,3.003906250000000000e+01,-7.360999773783782985e+02
-1.743085937500000000e+02,3.003906250000000000e+01,-7.355999774189189111e+02
-1.743085937500000000e+02,3.070703125000000000e+01,-7.475999764459459129e+02
-1.743085937500000000e+02,3.037304687500000000e+01,-7.360999773783782985e+02
-1.743085937500000000e+02,3.070703125000000000e+01,-7.365999773378377995e+02
-1.746425781250000000e+02,3.137500000000000000e+01,-7.470999764864864119e+02
-1.743085937500000000e+02,3.137500000000000000e+01,-7.475999764459459129e+02
-1.743085937500000000e+02,3.137500000000000000e+01,-7.365999773378377995e+02
-1.743085937500000000e+02,3.170898437500000000e+01,-7.470999764864864119e+02
-1.746425781250000000e+02,3.204296875000000000e+01,-7.460999765675675235e+02
-1.743085937500000000e+02,3.204296875000000000e+01,-7.465999765270270245e+02
-1.743085937500000000e+02,3.204296875000000000e+01,-7.365999773378377995e+02
-1.746425781250000000e+02,3.271093750000000000e+01,-7.470999764864864119e+02
-1.743085937500000000e+02,3.271093750000000000e+01,-7.475999764459459129e+02
-1.743085937500000000e+02,3.237695312500000000e+01,-7.470999764864864119e+02
-1.746425781250000000e+02,3.271093750000000000e+01,-7.460999765675675235e+02
-1.743085937500000000e+02,3.271093750000000000e+01,-7.365999773378377995e+02
-1.743085937500000000e+02,3.337890625000000000e+01,-7.475999764459459129e+02
-1.743085937500000000e+02,3.304492187500000000e+01,-7.360999773783782985e+02
-1.746425781250000000e+02,3.337890625000000000e+01,-7.360999773783782985e+02
-1.743085937500000000e+02,3.304492187500000000e+01,-7.350999774594594101e+02
-1.746425781250000000e+02,3.337890625000000000e+01,-7.350999774594594101e+02
-1.743085937500000000e+02,3.304492187500000000e+01,-7.340999775405405217e+02
-1.746425781250000000e+02,3.337890625000000000e+01,-7.340999775405405217e+02
-1.743085937500000000e+02,3.337890625000000000e+01,-7.335999775810810206e+02
-1.743085937500000000e+02,3.404687500000000000e+01,-7.475999764459459129e+02
-1.746425781250000000e+02,3.404687500000000000e+01,-7.360999773783782985e+02
-1.746425781250000000e+02,3.404687500000000000e+01,-7.350999774594594101e+02
-1.743085937500000000e+02,3.404687500000000000e+01,-7.345999775000000227e+02
-1.743085937500000000e+02,3.371289062500000000e+01,-7.340999775405405217e+02
-1.746425781250000000e+02,3.471484375000000000e+01,-7.470999764864864119e+02
-1.743085937500000000e+02,3.471484375000000000e+01,-7.475999764459459129e+02
-1.746425781250000000e+02,3.471484375000000000e+01,-7.460999765675675235e+02
-1.746425781250000000e+02,3.471484375000000000e+01,-7.400999770540540794e+02
-1.746425781250000000e+02,3.471484375000000000e+01,-7.360999773783782985e+02
-1.746425781250000000e+02,3.471484375000000000e+01,-7.350999774594594101e+02
-1.743085937500000000e+02,3.471484375000000000e+01,-7.345999775000000227e+02
-1.743085937500000000e+02,3.504882812500000000e+01,-7.470999764864864119e+02
-1.746425781250000000e+02,3.538281250000000000e+01,-7.460999765675675235e+02
-1.743085937500000000e+02,3.538281250000000000e+01,-7.465999765270270245e+02
-1.743085937500000000e+02,3.504882812500000000e+01,-7.400999770540540794e+02
-1.743085937500000000e+02,3.538281250000000000e+01,-7.405999770135134668e+02
-1.743085937500000000e+02,3.538281250000000000e+01,-7.395999770945945784e+02
-1.746425781250000000e+02,3.538281250000000000e+01,-7.360999773783782985e+02
-1.746425781250000000e+02,3.538281250000000000e+01,-7.350999774594594101e+02
-1.743085937500000000e+02,3.504882812500000000e+01,-7.340999775405405217e+02
-1.746425781250000000e+02,3.538281250000000000e+01,-7.340999775405405217e+02
-1.743085937500000000e+02,3.538281250000000000e+01,-7.335999775810810206e+02
-1.746425781250000000e+02,3.605078125000000000e+01,-7.470999764864864119e+02
-1.743085937500000000e+02,3.605078125000000000e+01,-7.475999764459459129e+02
-1.743085937500000000e+02,3.571679687500000000e+01,-7.470999764864864119e+02
-1.743085937500000000e+02,3.605078125000000000e+01,-7.405999770135134668e+02
-1.743085937500000000e+02,3.605078125000000000e+01,-7.395999770945945784e+02
-1.746425781250000000e+02,3.605078125000000000e+01,-7.350999774594594101e+02
-1.746425781250000000e+02,3.605078125000000000e+01,-7.340999775405405217e+02
-1.743085937500000000e+02,3.605078125000000000e+01,-7.335999775810810206e+02
-1.746425781250000000e+02,3.671875000000000000e+01,-7.470999764864864119e+02
-1.743085937500000000e+02,3.671875000000000000e+01,-7.475999764459459129e+02
-1.746425781250000000e+02,3.671875000000000000e+01,-7.410999769729729678e+02
-1.743085937500000000e+02,3.671875000000000000e+01,-7.405999770135134668e+02
-1.743085937500000000e+02,3.671875000000000000e+01,-7.395999770945945784e+02
-1.746425781250000000e+02,3.671875000000000000e+01,-7.340999775405405217e+02
-1.743085937500000000e+02,3.671875000000000000e+01,-7.335999775810810206e+02
-1.743085937500000000e+02,3.705273437500000000e+01,-7.470999764864864119e+02
-1.743085937500000000e+02,3.738671875000000000e+01,-7.465999765270270245e+02
-1.746425781250000000e+02,3.738671875000000000e+01,-7.420999768918918562e+02
-1.743085937500000000e+02,3.738671875000000000e+01,-7.415999769324323552e+02
-1.743085937500000000e+02,3.705273437500000000e+01,-7.410999769729729678e+02
-1.746425781250000000e+02,3.738671875000000000e+01,-7.390999771351350773e+02
-1.743085937500000000e+02,3.738671875000000000e+01,-7.395999770945945784e+02
-1.746425781250000000e+02,3.738671875000000000e+01,-7.380999772162161889e+02
-1.743085937500000000e+02,3.738671875000000000e+01,-7.335999775810810206e+02
-1.743085937500000000e+02,3.805468750000000000e+01,-7.465999765270270245e+02
-1.746425781250000000e+02,3.805468750000000000e+01,-7.430999768108107446e+02
-1.746425781250000000e+02,3.805468750000000000e+01,-7.420999768918918562e+02
-1.743085937500000000e+02,3.772070312500000000e+01,-7.410999769729729678e+02
-1.746425781250000000e+02,3.805468750000000000e+01,-7.410999769729729678e+02
-1.743085937500000000e+02,3.805468750000000000e+01,-7.405999770135134668e+02
-1.746425781250000000e+02,3.805468750000000000e+01,-7.390999771351350773e+02
-1.743085937500000000e+02,3.805468750000000000e+01,-7.395999770945945784e+02
-1.743085937500000000e+02,3.805468750000000000e+01,-7.335999775810810206e+02
-1.746425781250000000e+02,3.872265625000000000e+01,-7.460999765675675235e+02
-1.743085937500000000e+02,3.872265625000000000e+01,-7.465999765270270245e+02
-1.746425781250000000e+02,3.872265625000000000e+01,-7.420999768918918562e+02
-1.746425781250000000e+02,3.872265625000000000e+01,-7.410999769729729678e+02
-1.743085937500000000e+02,3.872265625000000000e+01,-7.405999770135134668e+02
-1.746425781250000000e+02,3.872265625000000000e+01,-7.390999771351350773e+02
-1.743085937500000000e+02,3.872265625000000000e+01,-7.395999770945945784e+02
-1.746425781250000000e+02,3.872265625000000000e+01,-7.360999773783782985e+02
-1.746425781250000000e+02,3.872265625000000000e+01,-7.350999774594594101e+02
-1.743085937500000000e+02,3.872265625000000000e+01,-7.345999775000000227e+02
-1.743085937500000000e+02,3.838867187500000000e+01,-7.340999775405405217e+02
-1.743085937500000000e+02,3.905664062500000000e+01,-7.460999765675675235e+02
-1.743085937500000000e+02,3.939062500000000000e+01,-7.455999766081080224e+02
-1.743085937500000000e+02,3.939062500000000000e+01,-7.405999770135134668e+02
-1.743085937500000000e+02,3.905664062500000000e+01,-7.390999771351350773e+02
-1.743085937500000000e+02,3.939062500000000000e+01,-7.385999771756756900e+02
-1.746425781250000000e+02,3.939062500000000000e+01,-7.360999773783782985e+02
-1.743085937500000000e+02,3.939062500000000000e+01,-7.355999774189189111e+02
-1.743085937500000000e+02,3.905664062500000000e+01,-7.350999774594594101e+02
-1.743085937500000000e+02,3.972460937500000000e+01,-7.450999766486486351e+02
-1.743085937500000000e+02,4.005859375000000000e+01,-7.445999766891891340e+02
-1.743085937500000000e+02,3.972460937500000000e+01,-7.430999768108107446e+02
-1.743085937500000000e+02,4.005859375000000000e+01,-7.435999767702702457e+02
-1.743085937500000000e+02,4.005859375000000000e+01,-7.425999768513513573e+02
-1.743085937500000000e+02,4.005859375000000000e+01,-7.405999770135134668e+02
-1.746425781250000000e+02,4.005859375000000000e+01,-7.380999772162161889e+02
-1.743085937500000000e+02,4.005859375000000000e+01,-7.385999771756756900e+02
-1.743085937500000000e+02,3.972460937500000000e+01,-7.360999773783782985e+02
-1.743085937500000000e+02,4.005859375000000000e+01,-7.365999773378377995e+02
-1.743085937500000000e+02,4.039257812500000000e+01,-7.440999767297297467e+02
-1.743085937500000000e+02,4.072656250000000000e+01,-7.425999768513513573e+02
-1.743085937500000000e+02,4.072656250000000000e+01,-7.405999770135134668e+02
-1.743085937500000000e+02,4.039257812500000000e+01,-7.380999772162161889e+02
-1.743085937500000000e+02,4.072656250000000000e+01,-7.375999772567566879e+02
-1.743085937500000000e+02,4.072656250000000000e+01,-7.365999773378377995e+02
-1.743085937500000000e+02,4.106054687500000000e+01,-7.420999768918918562e+02
-1.743085937500000000e+02,4.139453125000000000e+01,-7.415999769324323552e+02
-1.743085937500000000e+02,4.139453125000000000e+01,-7.405999770135134668e+02
-1.743085937500000000e+02,4.139453125000000000e+01,-7.375999772567566879e+02
-1.743085937500000000e+02,4.139453125000000000e+01,-7.365999773378377995e+02
-1.743085937500000000e+02,4.172851562500000000e+01,-7.410999769729729678e+02
-1.743085937500000000e+02,4.172851562500000000e+01,-7.370999772972973005e+02
-1.739746093750000000e+02,1.200390625000000000e+01,-7.400999770540540794e+02
-1.736406250000000000e+02,1.200390625000000000e+01,-7.405999770135134668e+02
-1.736406250000000000e+02,1.166992187500000000e+01,-7.400999770540540794e+02
-1.736406250000000000e+02,1.200390625000000000e+01,-7.395999770945945784e+02
-1.739746093750000000e+02,1.200390625000000000e+01,-7.390999771351350773e+02
-1.739746093750000000e+02,1.200390625000000000e+01,-7.380999772162161889e+02
-1.736406250000000000e+02,1.200390625000000000e+01,-7.375999772567566879e+02
-1.736406250000000000e+02,1.166992187500000000e+01,-7.370999772972973005e+02
-1.736406250000000000e+02,1.200390625000000000e+01,-7.365999773378377995e+02
-1.736406250000000000e+02,1.267187500000000000e+01,-7.405999770135134668e+02
-1.736406250000000000e+02,1.233789062500000000e+01,-7.390999771351350773e+02
-1.736406250000000000e+02,1.233789062500000000e+01,-7.380999772162161889e+02
-1.736406250000000000e+02,1.233789062500000000e+01,-7.360999773783782985e+02
-1.736406250000000000e+02,1.267187500000000000e+01,-7.355999774189189111e+02
-1.736406250000000000e+02,1.333984375000000000e+01,-7.405999770135134668e+02
-1.736406250000000000e+02,1.300585937500000000e+01,-7.350999774594594101e+02
-1.739746093750000000e+02,1.333984375000000000e+01,-7.350999774594594101e+02
-1.736406250000000000e+02,1.333984375000000000e+01,-7.345999775000000227e+02
-1.739746093750000000e+02,1.400781250000000000e+01,-7.410999769729729678e+02
-1.736406250000000000e+02,1.400781250000000000e+01,-7.405999770135134668e+02
-1.736406250000000000e+02,1.367382812500000000e+01,-7.350999774594594101e+02
-1.736406250000000000e+02,1.400781250000000000e+01,-7.355999774189189111e+02
-1.736406250000000000e+02,1.467578125000000000e+01,-7.425999768513513573e+02
-1.736406250000000000e+02,1.434179687500000000e+01,-7.420999768918918562e+02
-1.736406250000000000e+02,1.434179687500000000e+01,-7.410999769729729678e+02
-1.739746093750000000e+02,1.467578125000000000e+01,-7.370999772972973005e+02
-1.736406250000000000e+02,1.467578125000000000e+01,-7.355999774189189111e+02
-1.736406250000000000e+02,1.534375000000000000e+01,-7.465999765270270245e+02
-1.736406250000000000e+02,1.500976562500000000e+01,-7.460999765675675235e+02
-1.736406250000000000e+02,1.500976562500000000e+01,-7.450999766486486351e+02
-1.736406250000000000e+02,1.500976562500000000e+01,-7.440999767297297467e+02
-1.739746093750000000e+02,1.534375000000000000e+01,-7.440999767297297467e+02
-1.736406250000000000e+02,1.534375000000000000e+01,-7.435999767702702457e+02
-1.736406250000000000e+02,1.534375000000000000e+01,-7.425999768513513573e+02
-1.736406250000000000e+02,1.534375000000000000e+01,-7.355999774189189111e+02
-1.736406250000000000e+02,1.601171875000000000e+01,-7.465999765270270245e+02
-1.736406250000000000e+02,1.567773437500000000e+01,-7.430999768108107446e+02
-1.736406250000000000e+02,1.601171875000000000e+01,-7.355999774189189111e+02
-1.736406250000000000e+02,1.667968750000000000e+01,-7.465999765270270245e+02
-1.739746093750000000e+02,1.667968750000000000e+01,-7.360999773783782985e+02
-1.736406250000000000e+02,1.667968750000000000e+01,-7.355999774189189111e+02
-1.736406250000000000e+02,1.734765625000000000e+01,-7.465999765270270245e+02
-1.739746093750000000e+02,1.734765625000000000e+01,-7.360999773783782985e+02
-1.736406250000000000e+02,1.701367187500000000e+01,-7.350999774594594101e+02
-1.739746093750000000e+02,1.734765625000000000e+01,-7.350999774594594101e+02
-1.736406250000000000e+02,1.734765625000000000e+01,-7.345999775000000227e+02
-1.736406250000000000e+02,1.801562500000000000e+01,-7.465999765270270245e+02
-1.736406250000000000e+02,1.801562500000000000e+01,-7.345999775000000227e+02
-1.736406250000000000e+02,1.868359375000000000e+01,-7.465999765270270245e+02
-1.736406250000000000e+02,1.834960937500000000e+01,-7.340999775405405217e+02
-1.739746093750000000e+02,1.868359375000000000e+01,-7.340999775405405217e+02
-1.736406250000000000e+02,1.834960937500000000e+01,-7.330999776216216333e+02
-1.736406250000000000e+02,1.834960937500000000e+01,-7.320999777027026312e+02
-1.736406250000000000e+02,1.834960937500000000e+01,-7.310999777837837428e+02
-1.739746093750000000e+02,1.868359375000000000e+01,-7.310999777837837428e+02
-1.736406250000000000e+02,1.834960937500000000e+01,-7.300999778648648544e+02
-1.739746093750000000e+02,1.868359375000000000e+01,-7.300999778648648544e+02
-1.736406250000000000e+02,1.935156250000000000e+01,-7.465999765270270245e+02
-1.736406250000000000e+02,2.001953125000000000e+01,-7.465999765270270245e+02
-1.736406250000000000e+02,2.068750000000000000e+01,-7.465999765270270245e+02
-1.736406250000000000e+02,2.035351562500000000e+01,-7.310999777837837428e+02
-1.736406250000000000e+02,2.068750000000000000e+01,-7.315999777432432438e+02
-1.736406250000000000e+02,2.035351562500000000e+01,-7.300999778648648544e+02
-1.736406250000000000e+02,2.135546875000000000e+01,-7.465999765270270245e+02
-1.739746093750000000e+02,2.135546875000000000e+01,-7.330999776216216333e+02
-1.736406250000000000e+02,2.135546875000000000e+01,-7.325999776621621322e+02
-1.736406250000000000e+02,2.102148437500000000e+01,-7.320999777027026312e+02
-1.736406250000000000e+02,2.202343750000000000e+01,-7.465999765270270245e+02
-1.736406250000000000e+02,2.168945312500000000e+01,-7.330999776216216333e+02
-1.736406250000000000e+02,2.202343750000000000e+01,-7.335999775810810206e+02
-1.736406250000000000e+02,2.269140625000000000e+01,-7.465999765270270245e+02
-1.736406250000000000e+02,2.269140625000000000e+01,-7.335999775810810206e+02
-1.736406250000000000e+02,2.335937500000000000e+01,-7.465999765270270245e+02
-1.739746093750000000e+02,2.335937500000000000e+01,-7.360999773783782985e+02
-1.739746093750000000e+02,2.335937500000000000e+01,-7.340999775405405217e+02
-1.736406250000000000e+02,2.302539062500000000e+01,-7.340999775405405217e+02
-1.736406250000000000e+02,2.335937500000000000e+01,-7.345999775000000227e+02
-1.736406250000000000e+02,2.402734375000000000e+01,-7.465999765270270245e+02
-1.739746093750000000e+02,2.402734375000000000e+01,-7.340999775405405217e+02
-1.736406250000000000e+02,2.402734375000000000e+01,-7.345999775000000227e+02
-1.736406250000000000e+02,2.469531250000000000e+01,-7.465999765270270245e+02
-1.736406250000000000e+02,2.436132812500000000e+01,-7.340999775405405217e+02
-1.736406250000000000e+02,2.469531250000000000e+01,-7.335999775810810206e+02
-1.736406250000000000e+02,2.536328125000000000e+01,-7.465999765270270245e+02
-1.736406250000000000e+02,2.536328125000000000e+01,-7.335999775810810206e+02
-1.736406250000000000e+02,2.603125000000000000e+01,-7.465999765270270245e+02
-1.736406250000000000e+02,2.569726562500000000e+01,-7.340999775405405217e+02
-1.736406250000000000e+02,2.603125000000000000e+01,-7.345999775000000227e+02
-1.736406250000000000e+02,2.669921875000000000e+01,-7.465999765270270245e+02
-1.736406250000000000e+02,2.669921875000000000e+01,-7.345999775000000227e+02
-1.736406250000000000e+02,2.736718750000000000e+01,-7.465999765270270245e+02
-1.736406250000000000e+02,2.736718750000000000e+01,-7.345999775000000227e+02
-1.739746093750000000e+02,2.803515625000000000e+01,-7.470999764864864119e+02
-1.736406250000000000e+02,2.803515625000000000e+01,-7.475999764459459129e+02
-1.736406250000000000e+02,2.770117187500000000e+01,-7.470999764864864119e+02
-1.736406250000000000e+02,2.803515625000000000e+01,-7.345999775000000227e+02
-1.739746093750000000e+02,2.870312500000000000e+01,-7.470999764864864119e+02
-1.736406250000000000e+02,2.870312500000000000e+01,-7.475999764459459129e+02
-1.739746093750000000e+02,2.870312500000000000e+01,-7.350999774594594101e+02
-1.736406250000000000e+02,2.870312500000000000e+01,-7.345999775000000227e+02
-1.739746093750000000e+02,2.937109375000000000e+01,-7.470999764864864119e+02
-1.736406250000000000e+02,2.937109375000000000e+01,-7.475999764459459129e+02
-1.736406250000000000e+02,2.903710937500000000e+01,-7.350999774594594101e+02
-1.736406250000000000e+02,2.937109375000000000e+01,-7.355999774189189111e+02
-1.736406250000000000e+02,3.003906250000000000e+01,-7.475999764459459129e+02
-1.736406250000000000e+02,3.003906250000000000e+01,-7.355999774189189111e+02
-1.736406250000000000e+02,3.070703125000000000e+01,-7.475999764459459129e+02
-1.739746093750000000e+02,3.070703125000000000e+01,-7.360999773783782985e+02
-1.736406250000000000e+02,3.070703125000000000e+01,-7.355999774189189111e+02
-1.736406250000000000e+02,3.137500000000000000e+01,-7.475999764459459129e+02
-1.739746093750000000e+02,3.137500000000000000e+01,-7.360999773783782985e+02
-1.736406250000000000e+02,3.137500000000000000e+01,-7.355999774189189111e+02
-1.739746093750000000e+02,3.204296875000000000e+01,-7.470999764864864119e+02
-1.736406250000000000e+02,3.204296875000000000e+01,-7.475999764459459129e+02
-1.739746093750000000e+02,3.204296875000000000e+01,-7.360999773783782985e+02
-1.736406250000000000e+02,3.204296875000000000e+01,-7.355999774189189111e+02
-1.736406250000000000e+02,3.271093750000000000e+01,-7.475999764459459129e+02
-1.739746093750000000e+02,3.271093750000000000e+01,-7.360999773783782985e+02
-1.736406250000000000e+02,3.237695312500000000e+01,-7.350999774594594101e+02
-1.739746093750000000e+02,3.271093750000000000e+01,-7.350999774594594101e+02
-1.736406250000000000e+02,3.237695312500000000e+01,-7.340999775405405217e+02
-1.739746093750000000e+02,3.271093750000000000e+01,-7.340999775405405217e+02
-1.736406250000000000e+02,3.237695312500000000e+01,-7.330999776216216333e+02
-1.739746093750000000e+02,3.271093750000000000e+01,-7.330999776216216333e+02
-1.736406250000000000e+02,3.271093750000000000e+01,-7.325999776621621322e+02
-1.736406250000000000e+02,3.337890625000000000e+01,-7.475999764459459129e+02
-1.739746093750000000e+02,3.337890625000000000e+01,-7.330999776216216333e+02
-1.736406250000000000e+02,3.337890625000000000e+01,-7.325999776621621322e+02
-1.739746093750000000e+02,3.404687500000000000e+01,-7.480999764054054140e+02
-1.736406250000000000e+02,3.404687500000000000e+01,-7.485999763648648013e+02
-1.736406250000000000e+02,3.371289062500000000e+01,-7.480999764054054140e+02
-1.739746093750000000e+02,3.404687500000000000e+01,-7.340999775405405217e+02
-1.739746093750000000e+02,3.404687500000000000e+01,-7.330999776216216333e+02
-1.736406250000000000e+02,3.404687500000000000e+01,-7.325999776621621322e+02
-1.739746093750000000e+02,3.471484375000000000e+01,-7.480999764054054140e+02
-1.736406250000000000e+02,3.471484375000000000e+01,-7.485999763648648013e+02
-1.739746093750000000e+02,3.471484375000000000e+01,-7.340999775405405217e+02
-1.739746093750000000e+02,3.471484375000000000e+01,-7.330999776216216333e+02
-1.736406250000000000e+02,3.471484375000000000e+01,-7.325999776621621322e+02
-1.739746093750000000e+02,3.538281250000000000e+01,-7.480999764054054140e+02
-1.736406250000000000e+02,3.538281250000000000e+01,-7.485999763648648013e+02
-1.739746093750000000e+02,3.538281250000000000e+01,-7.470999764864864119e+02
-1.739746093750000000e+02,3.538281250000000000e+01,-7.400999770540540794e+02
-1.736406250000000000e+02,3.504882812500000000e+01,-7.330999776216216333e+02
-1.736406250000000000e+02,3.538281250000000000e+01,-7.335999775810810206e+02
-1.736406250000000000e+02,3.571679687500000000e+01,-7.480999764054054140e+02
-1.736406250000000000e+02,3.605078125000000000e+01,-7.475999764459459129e+02
-1.739746093750000000e+02,3.605078125000000000e+01,-7.400999770540540794e+02
-1.736406250000000000e+02,3.605078125000000000e+01,-7.335999775810810206e+02
-1.736406250000000000e+02,3.671875000000000000e+01,-7.475999764459459129e+02
-1.736406250000000000e+02,3.638476562500000000e+01,-7.400999770540540794e+02
-1.736406250000000000e+02,3.671875000000000000e+01,-7.405999770135134668e+02
-1.736406250000000000e+02,3.671875000000000000e+01,-7.395999770945945784e+02
-1.736406250000000000e+02,3.671875000000000000e+01,-7.335999775810810206e+02
-1.739746093750000000e+02,3.738671875000000000e+01,-7.470999764864864119e+02
-1.736406250000000000e+02,3.738671875000000000e+01,-7.475999764459459129e+02
-1.739746093750000000e+02,3.738671875000000000e+01,-7.410999769729729678e+02
-1.736406250000000000e+02,3.738671875000000000e+01,-7.405999770135134668e+02
-1.736406250000000000e+02,3.738671875000000000e+01,-7.395999770945945784e+02
